ply
format ascii 1.0
comment Created in RealityScan
element vertex 728
property float x
property float y
property float z
property uchar red
property uchar green
property uchar blue
end_header
-14.170103644232 5.563398306276042 14.0261364783733 100 121 149
-5.539742403414051 7.704144659524631 6.380318798545161 52 50 55
-6.582243070589668 6.31582521558314 5.676599688953694 125 137 153
-12.64168517499862 5.655869037355561 13.05255895559428 76 98 146
-9.742809730904517 5.959798886040921 13.44590829002764 129 134 160
-6.782177827804987 7.641490416850198 8.128327594211447 97 99 101
-13.30595896507256 -1.521524371660976 13.43862145107342 87 85 75
-8.072158465715876 7.422598138176764 8.728189394722518 164 155 156
-13.90354240948272 6.838633844740666 9.076236719596954 60 45 45
-6.909088818697776 6.214933522526761 13.15427262471303 152 98 98
-13.53194751482424 6.787089586145916 7.760829175614457 54 44 46
-8.157932269890736 7.454585229486317 11.63284943591144 96 90 84
-9.011709389769653 6.023889596790113 13.42824227673417 117 149 176
-9.937087408960819 6.98926400141521 11.1013413121362 87 73 75
-7.276807535246152 6.229563689513357 13.2859479042344 151 123 110
-7.013365202618254 8.991828115524195 19.18016477465149 63 67 69
-7.113705200021584 7.579712899135178 11.66861328817184 80 69 75
-6.593853093762483 7.64261402570758 8.699916665378854 125 123 129
-5.285347088044498 6.171882189371844 5.363221182371998 116 129 144
-9.619762750027743 7.317616249522207 7.761229039040769 81 52 40
0.2010420175666458 11.6221636012275 18.63457021606627 110 93 91
-0.6688347914402379 11.08214077438097 10.64613180184967 71 58 53
-12.81006140111706 6.754636737984349 7.797118854531291 58 49 50
-1.494346155182871 11.02189252437029 13.65826530048057 106 95 77
-7.200777173299604 8.813622328955008 18.6238241669238 95 93 85
-4.715668097164036 -23.06430138792009 12.18084646917477 130 121 107
-1.714719973513062 -22.66286312128904 12.69605528762843 37 40 48
-4.484102138820675 -23.04161298779371 12.36919462209512 147 137 123
-4.639022814731462 -22.91674376561135 13.33683581815091 145 135 119
1.882780965716754 -21.65919376499147 13.82288685134782 194 195 203
1.004481952899974 -21.72330531394931 13.76036469876855 189 189 193
-4.7582944121824 -23.05084344803357 5.707160808443822 160 158 155
-4.53976787568108 -23.27890598588514 18.97891851670499 141 133 124
8.417795039613482 -11.68086924367875 8.35109184172425 66 45 41
1.014108538442019 -21.79805433275943 13.54670121392586 184 182 184
0.1814780302499015 -21.84852100450151 17.68957580224075 118 113 110
-4.179095266576618 -21.85172364997772 20.77897408479691 122 115 109
8.308506240563821 -10.7982225513038 8.157168609872635 59 45 43
13.02308528835588 -16.54296360771385 14.80433789015716 76 40 32
13.12078889788289 -17.52838422833506 6.792862453411425 83 46 42
15.05445712808885 -16.21120969565353 15.24719288664873 67 37 32
0.2645853982672714 -22.19530568608685 10.38497312440573 98 103 110
12.92181066606741 -15.99374445567397 17.44152012131698 72 37 30
12.90343811038449 -19.14350973218333 21.91525062150229 131 125 119
-4.116222886610978 -23.68627246495823 17.88013939926452 128 121 114
-0.5992661877588283 -22.50574394744654 5.246701041040486 147 137 133
-4.648815843591619 -20.99137450111233 5.225931118921265 156 152 145
13.31815827232296 -19.04484409682694 20.64156869203358 72 57 52
12.11585184136408 -15.57669179917653 7.928110296155028 83 45 38
12.52469459042566 -14.3023516013715 7.760519332718671 70 38 33
24.70324087928136 -42.85069022942339 33.47371895690684 132 123 121
-5.558371165837446 -34.41612725362469 11.68108499585269 157 145 129
12.95422284893385 -15.69357456214713 10.08507882975541 100 51 39
8.893884291527652 -10.96122625997376 8.503679612058429 45 35 33
1.135908708534985 -21.78661416523924 17.0353576970282 135 132 131
5.979602792679906 -8.864491556870892 8.065516550438346 78 71 68
2.482233320949549 -21.52866004885034 13.69431862382324 183 182 188
-3.195530090833669 -22.95219339999222 17.80704062418965 141 133 125
5.571423908881878 -21.79368883370341 4.920512007458242 136 125 119
2.71694029541456 -21.75201888128139 17.07753923501805 136 135 133
13.39588316052785 -18.93855016897581 12.08737301044466 60 35 33
-8.864616341037978 -38.4131150933531 15.83193330815352 200 199 180
1.526675698942141 -21.72581115718828 13.83338975547273 195 197 205
19.43312015535135 -41.90777248057714 34.10902476466447 119 116 119
124.7048587201277 -106.7354236652825 33.6435710796034 66 36 32
-8.803765123839812 -61.04532540539242 17.10894675649876 166 160 139
13.33627850074735 -18.98747958451413 11.66696782940084 73 46 40
2.56636659430639 -19.72923070510684 5.021233035409663 157 148 140
5.276296260515368 -8.753627297660188 8.124156379367285 79 85 86
1.555929524692637 -21.8833695960694 5.339541522239257 149 139 133
12.71472457720045 -15.14076913611476 20.36531767824351 46 26 24
8.83505477606124 -11.26209195378432 8.495749846908513 63 45 42
1.158566520550991 -22.20527416472446 6.142912580204323 182 182 181
13.19687879526385 -19.04130107911604 5.319961916637093 89 70 64
-8.263012399831027 -42.3904928339459 17.45659809344979 83 84 80
9.63314282474785 -19.75955703586339 5.258865665949246 124 112 105
-0.4488510104719378 -22.35908270457384 14.34179986122975 32 34 40
-15.3327726637309 5.054534570137711 7.8928731733461 41 36 38
-14.34582767765719 7.773925441832693 22.86257654747389 156 142 132
-20.73934698568008 4.419353517617063 10.20058267843327 52 46 50
-18.21797489239765 7.39396416396617 23.03146457133668 140 119 107
-18.85580971199701 5.225468720101857 13.92551099300475 123 110 95
-18.64382894344527 6.12448681101978 8.559459518235151 65 54 56
-18.43376193875379 7.289023694093446 23.01680839538348 141 119 108
-19.73192025325136 5.937463141137379 7.906049721313767 64 55 53
-18.89810985842939 6.091511311524605 6.496308208197908 69 55 52
-20.36559160431327 4.914187144973527 13.35215630562459 117 102 96
-14.72296364546436 5.506011654395992 13.69874217690701 78 111 142
-19.75680110490979 6.095909042951954 11.55714883209668 89 85 79
-12.45654071992686 8.095304851325878 22.68803812214489 164 162 154
-28.35967321394434 20.35633547448172 9.235058227988834 58 50 53
-15.07831862523138 6.541734206932768 7.788281566934156 44 42 44
-14.13460512723727 8.051649419347514 22.38857231031928 161 158 150
-19.73030866369336 6.06828103673647 8.409509989265498 84 73 67
-18.65022382687052 6.110443503306771 8.439335660433294 62 52 53
-20.31817279033727 6.091501992043892 5.491476790041233 37 44 47
-19.87627302958472 5.017554080806574 13.8186708224116 122 110 94
-19.39620912131286 6.084167926086527 5.507817346365762 48 45 46
-18.70046944940836 6.217537059145566 10.57998931490835 56 51 55
-20.58562099016634 5.968836608113278 6.336839207079979 43 41 46
-14.47524483638528 6.709624029441007 11.0301640410313 91 99 100
-15.72864689795153 4.997996357476914 9.79154269553791 55 46 47
-18.05519559001981 6.172505530931253 6.270212553906472 61 52 52
-19.33219317744102 6.111664378647474 8.603174886639716 83 65 59
-19.27206978926487 6.089312021746681 10.5786588475716 74 65 52
-20.53599207774485 4.904369129628943 13.4056483230978 115 100 96
-18.89800745430797 5.078009957602941 13.65900812354884 105 102 95
-16.37922794545564 5.290945174518504 14.16140266741288 134 129 128
-19.47781829917099 6.078907113456551 5.489748397477827 43 40 42
-14.87041861009467 6.652055189635579 11.37995078760486 42 66 68
-20.0664004134504 6.046526967848339 9.116075064703928 58 52 53
-19.66567124712993 4.957951859161201 13.16591976036035 75 58 63
-17.59085982148095 6.325704344198217 11.0850433691023 79 64 65
-17.47420897978055 6.412984198169259 10.63952155102237 52 52 61
-17.41671382140236 6.320617286146123 6.477976966203032 50 45 44
-17.04074392544238 6.361024476525979 5.64880998582095 55 51 55
-10.56593671645531 6.920218213006565 8.547202987380539 119 106 70
-5.081155657310136 5.815654261983105 4.434131531961683 144 140 135
0.2177760326727071 12.09273187086564 17.77642674300646 136 130 132
-8.358376583247873 7.500305701008297 5.484546703439728 123 97 94
-5.132667406260198 7.061109657530388 7.022654185184066 43 29 30
-5.388545537229088 7.923721987933214 10.40312799006408 129 89 89
-8.105430459519964 6.08958656224647 13.04082799381499 151 93 97
0.7305741475758358 11.51241205635261 12.74847373702445 126 66 46
-6.799552001706306 7.671718710734223 10.29233156204117 78 75 82
-4.307638917655963 2.251488852426223 6.413210824661148 83 58 52
-11.23685585879756 7.128009425612938 5.155043621158764 45 40 41
-7.979081664117709 7.430941795070666 8.80520575843207 163 159 159
-0.3382613664709573 12.46388720858308 18.09487609128746 127 135 138
-6.157991099634431 8.986074003422608 19.30906913522514 137 126 112
-11.09437466542708 7.237042828945304 11.04216768513217 48 51 61
-7.727962358026332 7.48677752891163 7.918507356806101 154 146 147
-9.200703327289999 7.230062134199151 10.51896311825623 94 65 57
-6.262486667169552 8.406765871162422 8.974810292423758 45 33 34
-6.044858421295386 7.779291927675903 8.110332128653678 60 43 47
1.66310272009191 10.98699358411442 15.43742925776914 172 157 149
-0.2364173400118072 0.2186238088059729 7.499395166546099 104 119 132
-6.856451521577253 -6.814593863271715 11.99466132471124 115 118 115
-11.79216919900487 7.22097738062847 10.53664325044136 38 70 61
-2.401908145557804 0.4935621963306609 8.554191239067059 124 138 150
-6.063688999809728 7.660694541049771 6.269520640746707 46 42 52
-4.730530227601405 6.339011939461474 12.83405288870645 149 138 131
-2.839658524067439 -3.162609298160325 8.937997479219801 102 118 129
1.863427916364229 11.6450049358516 15.64321381479014 136 129 129
-6.972359970027711 7.637920188986766 8.974957224864161 85 55 55
-11.99050365898746 7.099708563995899 6.193421385780429 85 48 54
-10.63910771594904 7.111884093456808 5.460639618374975 84 70 67
-8.845938263474812 7.513909905190785 8.972715443377581 46 46 43
-6.686527886914149 7.627633851318681 7.771194561547196 97 85 64
-9.775562448787733 6.879521724230245 11.12788473233368 65 59 62
1.167747401452602 11.23231608097735 18.59548188047841 131 117 119
-6.859621098475868 -6.900843555538633 12.03321547379369 107 106 104
-10.43674731017283 5.907919967264496 13.3979994562249 102 114 140
-10.64740448069292 7.02847748762093 8.517970258296325 125 114 76
-10.71103209795521 7.074120949498051 5.436430344036314 76 67 66
1.583717336736266 11.26208199457856 18.59248784667119 124 105 105
-11.57388716789785 7.035631396002718 8.85641975076749 149 124 91
-5.945821488453658 7.884437325540047 8.340646481293172 53 39 44
-9.367052419967228 7.186562757299706 10.68195688704076 100 84 72
-9.966363137165253 7.133689188976633 8.706373893323851 66 63 59
-9.527561710278261 7.290056423376408 11.15299261091656 66 61 59
-5.469390647142345 7.88570699949607 8.345054877228403 43 46 48
-10.34162777267999 5.893955160588483 13.00048860681002 78 88 97
-6.364688393191402 6.369448990113775 13.16579588900058 153 98 99
-11.59829970283154 7.195731768610328 11.44379387129893 81 72 64
-11.91567245454952 7.157894156370419 7.67635192298348 70 61 55
-8.171755246700084 7.484363343645035 10.84864122029445 89 82 79
-7.860355400084995 7.440599937647418 11.30507445538364 138 139 127
7.558362950488503 15.34314813770759 1.055856587182834 127 137 146
1.435097810075065 10.96735690097114 18.21255653480684 117 101 101
-8.375429672705344 7.403973204714807 8.686032844321069 149 104 91
-11.48819302430955 7.147841478849113 10.37559195819583 84 52 53
-11.78552961688518 7.05292989536021 5.233215806488317 76 53 41
-4.282982646873747 2.229674245235069 6.939445387974567 78 57 53
-10.81838134488759 6.933056932370596 8.048337244495592 124 114 88
-7.639589585761045 7.60272504347861 10.76298662706832 125 134 135
-8.292963596508805 -3.553199628189081 11.83998468014634 75 56 54
-11.31356353909728 7.020075790345421 8.378956642420931 142 125 101
-11.78299911695573 7.072371506842686 5.619255673398243 79 53 49
-11.08885870931629 7.195497603714337 10.42341121233585 35 38 50
2.192715191498885 10.93753842202803 15.36443790126753 190 186 192
-5.301444152321339 7.799229752857333 7.660893493323311 54 57 55
-4.096659902383993 1.295738238488082 6.810961194690213 97 68 61
-11.81134864583094 7.04790043343716 7.812111567923079 98 86 69
-9.130547936677202 7.280664093944933 10.35451469976528 69 49 45
-7.004032548597156 7.693650251329762 10.52606066425057 101 110 128
-11.30058926261903 6.943830458037043 7.806550890673444 51 48 45
-11.57936713165649 7.062888765601329 8.945324577645543 135 112 82
-8.254354129628405 7.467737216991048 9.033286438030281 100 78 73
3.620000944010882e-002 10.10700788271178 6.595379047039714 72 83 81
-7.980039615765461 7.498800854556802 11.04023551702992 159 139 112
-6.8819943040116 7.64152101735869 8.123001484643853 98 84 86
-10.07833135460104 3.531029229628831 8.4388027461254 62 47 46
-7.752538118713248 7.504230171112144 5.531008289322166 113 104 90
-11.72494675484114 6.969112684961758 8.572167187405038 127 109 96
-9.766356540345239 6.585797311903337 4.687223278951418 45 35 35
-7.572964971494289 5.875581016592555 4.626947785714812 80 68 66
-0.5585743864579888 12.50413626368163 18.04906696684152 141 144 147
-10.909512257238 7.286195241614264 11.08158777985795 47 47 63
-10.01328160134747 5.493508177230353 10.16969392028295 79 60 58
-5.260777329171622 7.870915485459412 9.246210183873407 65 49 45
-7.827918775282836 6.222453840945549 13.61871095049097 134 159 166
-6.740794840320277 7.672543287714115 8.774879531745617 83 88 90
-11.38666702416759 7.15401987707097 10.38040811060353 80 51 52
1.289265917970978 10.96628411456145 6.787927448649558 87 43 33
-5.449804803625957 7.988516740189402 8.721720431603426 49 45 48
-0.6628025623985232 12.54576893325486 15.43767242887867 143 142 139
-8.205302914069534 7.48539899107594 5.235354795795551 90 85 84
-7.677061245890394 7.503401295668621 9.095372133604778 95 79 80
-11.45809383427749 6.962161380674964 8.036892606186051 118 105 75
1.809986577719912 11.32585366948643 15.24452490790075 182 162 149
-7.887536641895068 6.170898468395253 13.57574568602606 136 159 159
-10.73116116770715 6.967927792011576 7.866157932136458 66 72 72
-10.36237202428789 5.618854987892921 7.477698839936627 59 43 42
-7.983168620037423 0.4682195472598624 16.19589401155355 90 73 65
-7.933497065482232 7.464415404108136 11.13842876476582 153 141 119
2.335811669569233 10.12397297944323 15.89043891979104 100 68 64
-10.99772775577441 7.037563045052947 8.227092317110182 148 131 97
10.49274329406316 25.14488513773526 12.68323144385916 90 71 67
2.657718046070495 9.535334559275315 14.92846999697265 109 67 54
-10.97482718037626 7.014845406183959 7.905720419237761 82 79 67
-11.22815564060732 7.098121134751748 8.991574235974142 116 100 75
-9.584926319436896 7.207340145052757 5.236922459997702 55 46 44
-11.16725544168112 7.028967804359652 8.209574767591763 136 121 84
-11.05388436909912 7.187450019068249 10.6007769198041 36 41 56
-12.14004452581144 7.020345805948034 5.512303030663032 74 72 66
-8.92015556183506 5.988926988017521 13.29917804683159 99 137 156
-7.869489337325245 7.483244414833746 10.38160153105939 121 106 89
1.541215024987391 10.96410424043343 19.68648045958943 112 86 82
-8.998948418127384 7.294506025583172 11.65051811729709 82 70 66
-11.3253686779171 7.159512086310689 5.407131162008261 43 44 49
2.044870231147916 10.96423451695504 15.08209229387155 197 176 163
-9.422003244116581 5.974617657854456 13.43839992489688 137 143 163
-8.583845839393636 7.310338512511121 11.09403336845797 53 54 57
-9.738542162189635 7.281576267326467 6.375544384424467 49 40 39
-6.297769886108632 6.351690936584948 13.15991210345644 155 95 98
1.759553215753406 11.09716090197892 16.51405636390319 179 178 178
-11.6654262920054 7.173564477488457 10.96913102054703 80 83 74
-9.31225850408768 7.214672093696509 10.53366497346831 86 66 58
-11.06688982052664 7.005772738689287 7.847889262887483 59 56 51
-8.823296308830974 7.359663392376466 6.380310665064259 72 56 49
-10.01635239847072 6.138556348137042 14.2303832965193 132 114 133
-11.86559821229432 7.170138598240846 8.958096591463079 102 76 63
-11.23338497017762 7.182948831849661 5.574193298096223 48 42 49
-10.91304844634097 6.995051408413362 8.517612562669697 146 129 106
-8.932143107078783 7.509703943733198 3.784471372426134 59 45 44
-10.78038722560806 5.774969303786652 10.2597057493011 75 55 54
-8.425473261001505 8.590704333524062 18.5548828034451 82 65 60
-10.81716301389658 6.994812124728786 8.64284840099034 108 105 100
-11.23678175367781 6.981567461047438 7.915572581104339 74 70 55
-11.53725730330543 6.950628924498107 8.036380254956786 125 109 70
-7.979923928669526 7.47903749698504 10.38409242153875 124 103 78
-9.708794581113535 7.265791425968848 10.50392495365289 38 34 42
2.228663863421041 10.76026785217697 17.69372623778618 107 98 100
-11.18177997296 7.068759021590123 8.948547622111855 131 109 76
-11.19835086173064 7.179971503643942 5.774024082089806 53 45 51
2.161472844992675 10.87309882950402 18.18709753692515 117 96 95
1.99389493471714 10.84894558672015 14.88157617902207 202 184 167
-9.885075978243204 6.094282906508266 14.03244887474439 146 100 127
-5.207074673364387 7.698966656651758 7.886585400712914 69 84 77
8.870114140713776 -6.547812526240941 9.288032878869485 96 89 91
-0.3054782809720534 -2.587461806784133 8.499248712515142 58 65 77
-0.3266971903420664 -3.76625678509663 8.510583880086941 69 75 91
-0.2915610336272682 -7.703191209669335 8.641164305330367 74 84 99
8.166885243881938e-002 -5.198476939447757 8.550437627857111 80 85 98
-0.2339053221109784 -7.523720289388606 8.542758771880949 101 108 116
7.450999806632431 -5.438977124290583 8.522824789245346 75 81 92
1.01728125190083 -2.853019722272287 8.535480905547946 87 92 100
-1.062854280699033 -6.238532257520911 8.631109426196609 87 94 104
-0.7877761442183673 -5.775757422188964 8.574917917909751 96 102 109
-0.3789465000815157 -6.878600689973657 8.563390851722286 89 96 106
-1.014951968224636 -6.560871785231718 8.654911372441033 82 90 100
-0.4410208811945764 -7.706904625453818 8.648392129025403 109 117 123
-1.278037190670233 -6.26453293182507 8.68117122000745 84 91 102
-1.112228488108343 -5.917285650849794 8.567674459358143 79 86 96
11.22870540835807 -7.262615956791416 12.36854179853844 154 129 112
-0.4949758389748032 -7.394624764124273 8.641199021074083 109 115 121
2.757712636843235 -5.90240453164383 8.518442171301061 109 114 122
-1.08403385527705 -6.074636715060772 8.598019830770362 79 87 96
-1.226547928077099 -5.427698093945123 8.562410750486489 78 84 94
0.2083222913364638 -6.631704709419501 8.559326253737613 81 87 99
-0.5646419828665912 -7.219313173342106 8.677802117203434 112 118 123
-0.364756733980354 -6.303899158999598 8.568838034357908 74 83 97
0.3134259654776021 -7.18734614778753 8.545867855448757 80 87 102
-1.307066384540087 -5.937613029607847 8.618366780370241 75 81 90
-0.3147023037249214 -5.587661310786391 8.521114260792972 76 83 94
0.9678961043031356 -7.309980246318501 8.529767754035152 106 112 119
3.539502557241722 -6.55193107253614 8.541763888586674 97 101 109
1.55929182124015e-002 -6.531967696681368 8.579616407492926 76 82 94
0.245214699328107 -6.941204181871247 8.588024342237381 77 84 98
-0.5544345899168805 -0.8606785798887817 8.41629666808827 60 65 72
-0.4240695225925635 -5.682913181427617 8.5267733491116 70 79 93
8.563683239711516 -10.5104224416828 8.531995803137528 83 69 62
-1.135072324049665 -4.228704110434085 8.521196809800511 84 89 97
-0.9366559704351678 -7.216975185269941 8.687914509290682 92 98 108
-0.780259907656049 -6.023443724034605 8.588406162700752 104 109 116
7.790682556564628 -5.976069473603737 8.903069382505084 93 93 101
-0.232504868286267 -6.15077715978428 8.569792211583637 83 91 101
-0.522159833106812 -3.915850979260661 8.544888941864521 64 71 85
24.80042261717785 -0.1927484911476962 -2.445608675785115 91 97 105
-1.080781305412219 -1.415530596066239 8.482479135265709 57 63 70
-1.298485059605466 -6.52132334939841 8.693551354384907 85 93 103
-1.477966534899721 -3.378200437744759 8.484910812551028 71 75 83
0.3731094743540851 -8.004259850743432 8.555295796958319 94 101 112
7.395453335762989 -2.367688187792111 8.48915959580941 91 93 100
1.167727516994566e-003 -7.537764447009192 8.592878218428933 86 93 104
0.8465577232951331 -5.785361216930383 8.534864416136534 96 101 110
-1.234380030279376 -4.84305880645687 8.522595761218298 82 88 96
6.675933893018349e-003 -7.446245304988492 8.575434836270803 91 98 108
-0.4458102371174571 -6.139135860861861 8.583020394747855 90 97 107
-1.522357662577761e-002 -7.163240674924041 8.550675080987116 72 79 93
-6.690300408553118e-003 -1.249408629642301 10.96820528612725 71 75 82
-0.7865515755738786 -7.032343026433754 8.657911657828258 91 96 106
0.1051196743070364 -1.879628318074166 8.431994806055201 74 78 83
1.164679237437033 -7.531753254757932 8.530460637334158 100 105 113
2.162580603953524 -5.776411000913134 8.499971273079419 100 105 114
-0.6573889471495657 -1.632735818017486 8.470967846254254 49 56 69
0.1620851571328454 -1.310785305447585 8.409709149422543 96 100 106
2.672789776962004 -5.493274794813615 8.534336483348284 101 107 115
0.1914579264677794 -2.612819421498311 8.491674689882373 81 86 93
-1.127551451045674 -6.843397787076605 8.985373588051603 98 103 112
1.141385834802462 -8.550276247382389 8.565305132180091 102 108 115
1.467990601776367 -6.363932729603582 8.491243955552385 99 104 113
-0.8545765827720666 -5.699258480813383 8.560500186705625 105 110 115
-0.183359900841107 -2.308949645046245 8.455002809644567 72 77 85
17.52868050788836 -7.49564227852796 0.5561940451879982 102 106 115
-0.1569920722903917 -2.462120471284566 8.479948795117986 75 80 86
1.123314276557616 -7.910412492589455 8.515001826311682 104 110 117
2.903525731477331 -6.789052410651503 8.488387226840477 103 108 117
0.4754870076984477 -5.435125939259406 8.527075758096586 109 114 121
9.407983206255725 -0.4742441833819291 8.592272409359957 64 55 54
2.061480968248917 -5.588591959082533 8.517810432354542 99 104 113
-0.6667117579972861 -6.832525683123055 8.649267712470317 92 101 110
0.3742973790891538 -4.639542376705361 8.571046759663153 107 111 118
0.7311598170816527 -7.520494464522718 8.549886522976934 98 102 111
-0.6335613239640048 -7.469280661617514 8.632730968192259 92 99 108
-1.224109249094994 -5.849161974348755 8.578730670068651 80 87 95
0.2228262276189021 -3.208355210600325 8.505499489874863 98 102 111
-0.6049678959674631 -7.00719989142925 8.635979204408128 100 105 112
7.764828799751127 -8.22500048581839 8.410693326704868 77 61 53
-0.8281063791048802 -5.86413391866918 8.577041231639596 101 106 112
0.6268211327519153 -4.30216632940358 8.519162219140355 94 98 105
1.810577374680508 -5.740510775271488 8.532173323786241 100 106 116
0.4769228111998954 -6.025003745675265 8.5376739723693 104 109 116
1.005654022173506 -7.167966832491055 8.513140337432317 100 106 114
2.24027405428318 -6.426596923686833 8.509917265007992 102 107 116
2.329797612933508 -8.351127814515944 8.488775660529511 105 109 116
-0.5787394381047946 -7.164570462840889 8.632626377041008 108 114 119
2.134772750469679 -0.8440713013792946 8.359513691665875 95 100 106
-7.760522737763481e-002 -0.8726964377822419 8.451747208629719 65 71 77
-0.1536865855463961 -2.250596505347692 8.454404237569072 94 98 104
4.138351166016863 -6.385776601214476 9.980051660531947 96 97 106
-0.6726762092674998 -8.048639101922424 8.698913713472001 96 104 113
4.287319642989235e-002 -1.365919315805614 8.420436172767673 81 85 89
0.1330392769191873 -3.067757157194834 8.505569967017671 99 103 111
5.304472853212616e-003 -3.288909025259344 8.529055096717736 89 94 101
2.65727009966209 -7.241969872960976 8.455924158736632 105 110 118
0.8356870534910226 -2.501654704677295 8.478368807987531 83 86 93
0.8368471611768418 -6.594102875811527 8.518430998203829 99 105 113
-0.4758842234727885 -7.794387751934313 8.650303396740675 107 114 121
-0.537911625587719 -4.772104619865966 8.560762380561702 81 86 97
0.4427399692717606 -4.846478886594252 8.525239740003503 96 102 109
0.1727896056686438 -7.061012662826863 8.555183698645566 74 82 97
0.9257970824354746 -2.23036640806729 8.497677156394822 87 91 97
3.365179241691669 -5.577406338087559 8.5190795314852 103 107 115
0.6390934478286115 -6.251320556647318 8.510742778013588 101 107 113
10.6322184847317 -7.017278589383875 11.8238947155815 79 57 50
0.8858729149160065 -4.542628142026927 8.597012985524502 101 105 111
2.075956779233926 -6.255469630131268 8.483468489350118 99 104 113
0.6332166810190523 -6.200656716045578 8.538758274369156 101 106 113
-1.461214395380832 -5.885740285465201 8.632511744517872 84 90 100
1.433627250511213 -6.499055472709706 8.492520222154274 98 103 112
0.3559496760386229 -4.42754739330895 8.518760192959581 91 96 104
0.1371774469831749 -2.787740618407168 8.482435441580071 79 84 92
-0.129749860080009 -1.40383580123183 8.405920912040417 93 96 102
1.400555255374596 -5.130854535206834 8.488398489907354 103 108 114
2.134798801001766 -6.047082446835549 8.502078933490912 105 108 117
-1.52189074916762 -6.279511949732684 8.717173947320626 84 90 98
1.708609892926654 -4.210209133892568 8.560329796784181 90 95 102
-1.423204298298864 -5.767514211098523 8.612882771897842 83 89 98
0.5991881434525709 -3.930597670952652 8.455707311481904 95 99 106
2.065220899792972 -6.319244013431526 8.499443849091589 101 107 115
0.8227575231761211 -6.974387059278532 8.503090109471083 101 106 113
-7.478872610981685e-002 -2.171081720687053 8.458721224998961 76 81 88
0.1111732143107069 -2.888761003746589 8.486730262348816 84 89 97
8.93000112162408 -8.81297444002422 6.31228539569285 111 114 120
-1.281888541336269 -6.023632681268486 8.623199467477498 77 83 92
0.6513353699672545 -5.803178361365808 8.515528339211162 98 103 111
1.448065316616221 -5.502639406290941 8.485485216348627 108 113 120
-0.3702807690675454 -6.189573366565186 8.576466219682219 91 98 108
8.430979057701494 -8.59127568164287 8.392263048928433 94 78 69
-0.3460899540121055 -5.445843054480517 8.511305908767275 92 98 108
-0.1960234895926439 -2.620715203988569 8.530706775552149 72 76 84
-1.486534118162671 -5.72816998688503 8.593353882253096 83 89 98
-1.449251144638444 -4.656409915462221 8.50887362327858 81 86 94
-0.3818098651381127 -0.8118270745466143 8.424718808090555 80 86 88
-1.483793350516053 -6.055828565161589 8.658017977823235 81 88 98
0.8443078180353285 -4.489709012817196 8.540110769291859 95 99 106
9.675266407447427 -5.890614325258898 9.25021715988326 70 59 60
1.977688604751542 -5.697622910731211 8.407610014431796 102 107 117
5.559527170821527 -7.183491226453831 8.459018204358179 109 112 118
7.617825742367256 -5.413250378080402 4.042849417745584 90 95 104
1.259376370866008 -0.6947676942302388 8.446613514225856 74 78 84
2.378396806492445 -6.192978853396577 8.495864029480263 101 106 115
2.877447846836878 -7.581060383662173 8.460309636730006 108 113 120
0.8145383122878509 -5.582662064270865 8.533025292551553 94 100 109
-0.3158827873004501 -6.216514895250739 8.578803571429432 87 94 104
1.908158870901184 -1.478943129397652 8.466081056669909 81 85 91
-1.2010976366293 -4.669617911991226 8.519898690197939 82 88 97
2.413008629608938 -7.987483376840451 8.473842912861102 105 110 117
-0.1656919689165546 -2.118993547911447 8.445152260100002 99 102 108
-0.865520378504274 -5.93662197681683 8.437519014486695 84 90 101
-1.195289379991446 -5.058422719016727 8.53675315881077 82 89 98
-0.9052938013142835 -2.707233153387904 8.446454323191885 61 66 77
1.684062327268443 -5.643392899774798 8.472240170791252 96 102 112
-0.8156713785158374 -6.163742064119996 8.615630653438178 87 93 104
0.3216517103916278 -5.121965362885515 8.515918633110106 92 97 106
2.042159749671801 -6.405487944456195 8.507337977734849 100 106 115
-0.2613532021065626 -6.782829401576997 8.562333259052149 82 88 100
2.071532459515494 -8.60260566379333 8.509386689617026 104 109 117
0.3336560320186934 -5.355904128719776 8.480239806291555 110 114 120
-2.883511613542078e-002 -3.034866827021934 8.477634177586852 84 90 96
7.603984636146569 -8.252603639786539 6.25269378343609 107 111 118
-0.9856228475522095 -5.808177455629097 8.551938893628844 82 89 100
0.9830894674864545 -6.323797896555012 8.487024639438205 99 104 112
-1.409939279468004 -2.635616233729252 8.432819218151577 73 77 83
1.864005577533459 -6.600732506998589 8.504247951167672 105 110 119
2.771452430634665 -5.866878212947568 8.519602617133918 107 112 121
-2.231292710738315 -5.074288030004506 10.75163629263969 97 103 111
0.8004172535335754 -2.836323098907224 8.511367036407863 82 86 94
1.724248784309276 -5.609191267849054 8.495759316390666 98 104 114
-1.053869540569911 -5.767413684877531 8.53780779732773 82 90 99
-1.253331566594374 -3.729247819852313 8.531483272753279 75 80 88
3.50054345581135e-002 -2.341032290107099 8.446420297684691 76 79 85
-0.1249257464194233 -5.976749790503071 8.540776333953788 81 88 99
-0.908370769605068 -5.573889180695435 8.513231150974384 94 99 107
3.631388353532807 -7.062273654560807 8.496829286869175 107 111 119
3.911216828102951 -6.169861740331402 8.507609266906615 107 111 119
-0.9591291212800879 -5.35531273864759 8.525520338608432 92 97 105
1.765239619389346 -5.884748459260505 8.500594385138255 104 110 119
7.667047242516642 -6.269887895513459 8.915008273123741 95 95 103
-0.8839544335015586 -5.733937428744904 8.545865713837534 90 96 104
-1.363071300662342 -4.24733876710691 8.510069977812263 90 94 105
-1.367074929990254 -5.984764185499628 8.63129589024045 79 86 95
7.805097027933841 -7.066744323300213 8.767576742320836 100 100 107
1.924724590097771 -5.742944392142515 8.523913019038261 102 107 117
-0.9550064845632593 -2.760902275780776 8.436216906224052 64 69 78
1.925210240239058 -7.95248476988867 8.47768697024055 102 107 114
7.549205508371033 -6.261025715231582 8.601044674404029 87 91 101
-0.9002544020982983 -2.391132296505811 8.462331774710941 56 62 73
-1.465377619421923 -2.310416605251787 8.423916060096451 76 81 86
1.981396305090902 -5.682673971190432 8.512895942263901 103 108 116
0.7352755017529312 -1.506007972526065 8.451167607126443 90 93 99
-1.022207221018572 -1.75300182201397 8.491098397029432 54 62 72
1.882974381665886e-002 -2.09404185223838 8.443703886655213 71 76 83
-1.078456436035796 -5.712747236939752 8.540035044274276 82 89 98
2.799346811443031 -3.424917530125638 7.173697576963427 90 94 102
3.436445615747478 -6.770911606500428 8.492248914906153 108 111 117
2.372948327507217 -7.401822350112717 8.468145646126144 106 113 121
-0.8111570249222027 -2.946307793429701 8.457885939845935 65 71 81
-0.3031959076196787 -4.705083988914947 8.536514742586757 81 88 98
0.926316071061339 -7.526091705631114 8.511787915426376 100 105 113
0.8897075861266239 -6.943916778408979 8.50349713803344 102 107 114
0.1167890233376177 -6.228634441034725 8.599008947437392 88 94 105
-0.9390670369390495 -5.799073954022874 8.559772429830616 84 91 101
-0.412670670469782 -5.619811532354591 8.511834327901841 76 84 96
0.3745778620891082 -5.448130537908984 8.5314500690986 103 108 116
1.759299681504147 -5.953203197200966 8.513656582584092 104 109 119
1.377392160726582 -7.341337011390133 8.486028096757844 101 106 113
-0.3376693668406457 -1.438618663614899 8.422742664152871 80 85 89
0.5317540524434929 -3.981338970159406 8.483335700360067 94 97 104
0.1358508395912579 -8.041943073343777 8.585944614918414 91 100 113
2.424791347421601 -7.275903072466807 8.462876570976807 101 106 116
7.63490736430454 -2.206211490407914 8.395894730386589 90 91 99
-0.84276507425078 -6.004251572010282 8.577626775735636 96 102 109
-0.1632450382097321 -7.141831048463777 8.592953049982103 72 79 95
5.702508187754565 -5.098533841164958 5.999521950917012 99 103 110
1.830456469467931 -6.190460498447701 8.451307601936033 92 100 111
8.036757677805307 -9.948264922814847 8.00364771107682 110 85 74
-1.290952712502593 -3.842823983636312 8.551051387312071 73 78 87
1.938253388686856 -1.55546186973278 8.454448160638334 83 86 93
-1.357181298936352 -5.704081045230759 8.585580589289817 82 87 97
0.7083974289076224 -6.290033962163381 8.54850594745915 99 105 113
-1.242558617764767 -4.78891938675692 8.517934666476981 79 85 94
2.136338277497933 -3.027304010126121 8.53345674074663 91 95 102
-1.316726660759269 -5.694446860671189 8.592872426374154 81 87 97
-0.6208439928357892 -2.702690958862246 8.454303045772802 65 71 80
1.153379913044363 -6.529481840113672 8.463627885480737 99 104 112
3.347380347481375 -8.389851446269731 8.498175980320788 114 116 122
-1.720514602401045 -3.196695387338189 10.35008033589739 87 92 99
0.1253272848371807 -4.688668674702274 9.420753555227586 97 102 109
1.67032779792559 -5.525763614070257 8.477866436259335 95 101 111
1.958549488935995 -6.662275048592494 8.504507933219054 102 108 117
0.5914927056338687 -4.996033471473983 8.49824786235726 98 103 112
8.685810640691788 -2.793789337553771 8.478222391776022 76 78 86
3.362202472831183 -5.98292663486157 8.489887922014006 94 101 111
-1.118542350283744 -4.540627697129048 8.523377158352757 78 85 93
1.521852000234866 -7.990165429652604 8.504096059471907 99 104 111
0.7239767005412369 -2.277648114076661 8.468555142977705 91 94 100
-0.7576209797490332 -6.097758453392841 8.599206377680289 98 104 112
2.779048146334569 -8.554365849985254 8.464405512650691 111 115 120
-0.2961300356199888 -6.268783637153704 8.576725093418235 79 87 99
6.553437984172744 -6.291412312385159 8.490300837710233 95 99 107
-0.9695718558062656 -5.640195296763595 8.52763336345325 86 92 102
-0.7798345943006153 -3.367428111296364 8.465533540462555 83 88 99
-1.181965738779107 -2.238458486697848 8.427860219263726 51 59 71
0.7227134892093058 -4.202277261409543 8.498441670771584 88 93 101
7.133119802632852 -6.202666533490645 8.450962380817652 93 97 107
2.297442081597097 -0.2142577592409233 8.445737664604588 93 95 100
0.6670871562155479 -4.179795213096384 8.503543498227801 102 105 113
1.180993301197094 -5.570979626088464 8.487752321856304 96 101 110
7.253396903373505 -4.545549470804337 8.687983660861274 81 84 94
-6.909336982589992e-002 -6.005137534626189 8.54624616005902 86 93 103
0.6635822391843395 -6.375389078914446 8.538328399901646 103 109 115
2.40404473385605 -0.361948800926299 10.03098469389813 60 65 74
3.276833426177113 -7.661455389387289 8.506452398565553 94 100 111
17.86558667082799 -10.87051131534057 1.706406940453343 104 108 115
4.92067479754922 -7.55631494165636 8.498839063289736 110 114 119
-0.7917277877683289 -4.253902894627037 8.48176120088643 76 84 95
-0.7355672615845867 -6.546822842759721 8.615202799048664 90 97 106
9.986521682014029 -0.1455978741761107 8.631466504851492 67 51 48
8.126021000690235 -6.34741808687016 9.08835925455187 101 99 102
-1.26190380593235 -3.170488892722165 8.462511419177744 80 84 88
-1.736222831728645 -2.867143092025803 8.466959960649739 65 69 77
-0.1462735925997741 -5.923870464306035 8.541257963481977 77 84 96
0.6803792005458152 -3.915582002438208 8.476967762962953 106 109 115
-0.7908661277880333 -6.219446812058894 8.614400798464558 90 96 106
5.050608879378331 -5.732930273837974 8.49715822067048 105 107 114
-0.4634171267585699 -5.739269842576493 8.540740548176061 67 75 90
3.533281255830831 -7.408191795264321 8.506485473327766 108 112 119
-0.1599833969826021 -6.907570192829547 8.20858794216897 96 102 110
-1.215903544475207 -5.510418625260226 8.556578980937793 86 91 100
0.7372388307719606 -3.835594146104123 8.483335964972047 104 107 114
-1.365976366573995 -2.907044427483216 8.446646485908399 74 77 80
1.071753559002039 -7.313644783505804 8.506421361889927 105 111 118
1.034093310649545 -1.758833192118756 8.452054728389742 79 84 91
7.311257158987796 -7.501571616776157 8.448109777345444 105 107 112
-0.1361019444198296 -7.078624848153015 8.220501577538258 99 105 112
0.6759117673853757 -3.101515000656569 8.521031359000023 83 88 95
-0.9722920363429397 -7.68760510082743 8.998055821273587 103 110 119
2.512250454332343e-004 -6.32884475324872 8.557988803004324 72 80 95
0.8048498087257925 -7.95476687669859 8.554033147958181 112 116 121
2.138703457888966 -7.292683950043616 8.485073125484201 103 110 118
-1.273586546759899 -6.629024862200908 8.695344160793876 88 95 105
0.6944548684149938 -6.547213380215218 8.515309911740653 101 107 114
1.97884481653901 -8.471119398932982 8.508819703270555 103 108 115
-0.7744042695860498 -2.660698650329483 8.439909570731592 63 69 80
0.7965139549023215 -5.175054530281764 8.553884264219972 97 103 111
-1.044944913859575 -2.157865616576253 8.43214663085298 63 69 78
1.182015833005933 -1.583199768625327 8.449694199601312 89 93 100
4.754652300366047 -7.42393695546907 8.486513783083856 107 110 116
-0.8481454606359906 -5.897403770647105 8.558458660210984 93 99 107
4.907329402586523 -3.963843297472952 8.590899890462108 99 101 108
-1.397368660267125 -5.929477283546192 8.634931624898559 80 86 96
0.6403536663516074 -1.507264223248306 8.4254063806081 73 78 84
11.04820845998756 -11.62648850035859 8.338308438140404 151 141 131
0.2279746006374996 -1.932304787997341 8.429783840465991 81 85 90
1.950609168177448 -7.180082984338767 8.481664435041548 106 112 120
0.6268241588051775 -5.857058225218625 8.507947996809795 99 104 112
0.7359089138324056 -5.538186347626195 8.546859090176609 96 102 110
-0.1810009015859114 -6.737290007479157 8.19559690353028 93 100 109
7.423117487128958 -6.840078814168973 8.52850727731885 95 97 106
1.818192066032834 -5.995347595105595 8.52304176356008 100 105 115
3.595577664958677 -7.12999934304625 8.500388999095422 110 114 122
-0.9211074047215659 -4.686278219111973 8.518841370532407 101 105 109
5.482687197343419 -7.08927499109404 8.439490886216186 104 108 117
-1.195401757382536 -5.957466771643923 8.58473264555967 76 83 92
-0.4333191467865401 -0.7546442004882623 8.447696978979291 80 85 87
7.431775078131998 -5.972450462674422 8.763278137681819 88 89 98
2.639682283355371 -5.551808574120044 8.526020663966152 103 109 117
0.4196395642825668 -2.239935510316419 8.455100817199966 75 79 86
7.479753905868288 -6.148126114410744 8.733051406709798 94 94 102
1.322756776445009 -8.650235039558041 8.557302142107549 104 110 118
7.793753960425373 -6.848605716226496 8.766895558462489 92 93 103
2.497628783611882 -8.466458658884243 6.061893173626826 92 99 108
3.68860991572387 -5.743692160798146 8.482272398631654 102 106 114
6.456358536562838 -3.335059734872365 5.793767036244251 86 91 100
0.4320980862884772 -5.479248054563428 8.538510174331609 99 104 112
5.362813338858848 -7.229489109839617 8.432074458409026 108 111 116
-0.2802502378049831 -2.455791371649302 8.513718524870567 83 88 93
0.7029660105473254 -6.852705959257889 8.497378982467 101 106 111
0.6293232871056954 -5.72278903108056 8.490896731012123 98 104 112
7.44221044397151 -7.9402694571989 8.387411476300754 82 79 80
-0.2230277760731902 -7.939901413685631 8.612792434419266 97 106 116
2.20006963059475 -7.391410930003868 8.461271593984414 103 109 118
-0.1022287709224273 -6.544709005728552 8.584958869116113 77 84 95
0.4468691119891766 -2.003803016266405 8.448843443200452 79 82 89
-1.431979186357107 -6.630751469214146 8.728298838904823 81 88 99
2.237075817040806 -8.155525855969575 8.437289498976446 92 99 108
-0.622549748279539 -6.005735917054915 8.582506530125796 97 103 112
54.95178864447879 -13.15339419064852 -21.70544582944444 97 103 111
0.7250037043887799 -6.375438835808447 8.502323179492373 102 108 114
-0.8731636871841038 -5.45177858587749 8.515311312226137 105 110 115
0.4648524631721468 -2.870760421623695 8.518255649966957 87 92 98
0.8593183645047997 -4.104079280287761 8.511708888134251 90 94 103
4.714542939338489 -7.656237910203339 8.467565879435917 111 113 119
-1.461583345470621 -3.037215845363015 8.461334019870106 70 74 81
0.7090803663764527 -1.473554361959431 8.443154372627694 74 79 85
-1.002764774695433 -2.81315035486876 8.436935885416945 62 67 74
-1.106808469198856 -5.441236694582388 8.523592197917777 76 82 92
2.162419561142112 -8.358459987900712 8.47652044005895 104 108 115
-1.290180254940759 -4.177981216336128 8.506275090276038 79 84 93
6.250131805796284 -6.289512879148461 8.526421592384276 105 107 113
-0.2591059084441504 -6.720315950668328 8.58553972502941 83 90 101
4.104095815668114 -7.368409379946717 8.502126027045648 110 113 120
3.641366190743613 -4.791082507303615 8.554754813606431 101 104 112
5.334782388567897 -5.993308029601129 8.532990306987783 105 107 114
-8.903015124599473e-002 -3.76167077501788 8.539667173108207 90 94 101
2.963653241210206 -3.146719775591266 8.540890830930836 92 96 103
-1.067169009717992 -1.38112992321455 8.469961573267309 57 63 70
5.125350579357602 -7.403565824129712 8.453578399868764 108 111 117
-0.1159674914493606 -7.369393684903493 8.571405647686964 90 97 108
-0.4976951638102529 -5.417327242756863 8.528555410702337 91 97 106
5.923063991245555 -6.8899716059729 8.457938906557608 109 112 118
-0.5641671646941295 -7.607540804811933 8.636809306641183 104 110 117
7.136919462522046 -6.070454004134272 8.542638833707251 101 103 110
-0.9725062959959199 -3.558496573366909 8.494730863104401 63 70 81
-0.8696622436345041 -1.676164613762225 8.470708901561361 59 65 74
0.8077347802213741 -6.04557885278255 8.535648039293735 97 104 112
7.825132614282236 -6.879013737645324 8.802452616759854 101 100 106
8.466077343490014 -6.796615349464318 9.071345159162668 95 94 100
8.154458911489293 -9.968832422560729 8.216562093294048 126 97 83
-0.444732946046983 -4.01040026843733 8.50924647478141 77 83 94
-0.8844847892655268 -6.121569796724298 8.608280277314604 87 93 103
1.245907640724786 -2.252612722827688 8.51285190470697 79 84 91
3.026847889741487 -1.365911866675292 8.473757803515355 80 83 89
3.583470066538191e-002 -7.406655452377993 7.775913881843955 95 101 111
-1.49815934664056 -3.725132804976315 8.479783460973492 87 93 102
-0.7876467359904116 -3.91419214371302 8.477529183606151 54 62 76
-8.198311949293402e-002 -5.955573483381027 8.55031186344079 82 89 101
5.943451038406725 -7.953722636600084 8.443302126203156 116 114 118
0.2867011767637532 -7.727678499158483 7.767846566865684 89 95 105
0.8448020937464087 -2.200946520163218 8.493495505571516 89 92 98
-0.3270895985046208 -2.669828382972882 8.460210346508413 63 69 80
5.953024287748156 -7.419204216887792 8.450291375373396 110 112 118
-1.118048733441377 -1.709694864550177 8.483326303539595 58 66 76
0.2974456549676269 -6.339661061321993 8.620654689668473 107 111 119
1.80126108331493 -6.34676172308315 8.476738856745826 102 108 117
1.183266820697282 -5.09583785524742 8.505888738969722 101 105 113
7.25296349505482 -6.210469854194537 8.51720548777597 96 99 107
7.703846057301473 -7.387638536754338 8.499556010986046 97 99 107
5.190378065969005 -6.306812731872376 8.45816964062721 108 111 118
5.260297419423 -7.625840177716693 8.457550281148468 109 113 119
5.572109689722946e-002 -6.783171720265877 8.567345098262351 88 95 105
2.608757685780231 -6.202808903166003 8.499241666812177 103 109 118
4.583592560343636 -7.820407355514646 8.478469040848715 105 108 114
1.254442865351998 -7.917722670178522 8.545541710659322 104 110 116
1.142525384780187 -5.55179247744839 8.470838407441761 95 100 109
1.170620696936592 -5.794381272839678 8.494982340547624 95 100 109
3.038350771719548 -5.841984584564922 8.515887499301817 106 110 120
0.4188339274053521 -1.110615731548735 8.389413229955331 83 87 93
0.1170946411355673 -4.694421115704052 8.520395339163175 108 112 116
-0.9219372418074456 -6.96281584565286 8.6645864335943 91 97 106
0.7491224612219467 -2.556141086781466 8.502814317222985 91 95 101
6.756939904894346 0.1346055868094599 8.72997533277792 82 84 90
2.37048976671903 -7.198951711968513 8.492243512483302 102 107 117
-1.333062751104491 -2.44519582366283 8.426938850277676 88 93 94
1.003915477930022 -6.06187458809663 8.501182660616008 95 101 110
-2.205065191865915 -7.13691153619479 9.744773855949386 94 101 109
1.281210132680089 -2.574239851370643 10.01966404787761 87 89 96
-1.096278853937424 -1.355733829282855 8.457176999622568 53 59 67
7.928467487923079 -6.656775015626249 8.824006885380522 95 95 103
5.347303741389105 -6.113452600934101 8.454745238100775 108 110 118
6.30123701662874 -7.136601162880607 8.47241215090648 106 108 114
24.28257273869714 -3.005295067472407 -1.309767866609434 95 97 105
0.4330055801391934 -0.8493789003058123 8.40678170288089 86 91 98
8.191130815757685 -7.206592657211267 8.903889781065926 103 101 105
4.543405784359926 -0.6439797537510175 8.468916536937764 76 77 83
0.3845132039923896 -5.166077902627388 8.528294106767778 92 97 107
0.1514123591151759 -7.288372936774615 8.552042071906603 89 96 107
5.464058215576519 -3.188119922640756 8.515060223819601 98 100 106
4.090998498523497 -6.387433473575631 8.488902665945348 106 109 116
6.438027943518833 -4.311458853955648 8.51674799839777 106 107 114
-0.4149703127405214 -5.83485271030112 8.554705401393802 66 74 89
2.97039696892248 -6.329826705838611 8.532257514605812 105 110 118
1.924481483900059 -2.56453843638349 8.518403472486579 87 91 98
2.176163712022783 -4.113107347317362 8.56515762039146 96 101 109
3.264074067606737 -2.005559917792426 8.518545056736313 85 88 94
1.066695107562858 -2.431008115964232 8.497110722833 84 87 95
2.620231589750267 -6.125993770613257 8.48200051268844 101 107 116
0.4831367740106173 -3.880237649345894 8.492705650542554 93 97 103
-0.2674441172485576 -5.529952812131189 8.515343759082308 77 84 95
0.791105343837217 -7.031876225314845 8.518343248181772 100 105 112
-1.107051655641364 -6.738931996938621 8.674038869920052 90 97 107
-2.306751092933943 -4.292499936552825 9.196478242301348 76 81 90
9.707753373824097 -6.012210384668145 9.247803347396044 71 60 60
2.229765019829713 -1.492701579659677 8.45519401748075 81 85 91
-1.512784452705966 -2.714535508580024 8.43537595806759 68 73 81
7.62605322573501 -2.076844160332618 8.45641187741024 102 103 109
3.591827286400572 -0.2162554423850718 8.455618735911829 96 97 102
1.130198611532224 -8.295335757082437 8.538353996717447 106 112 120
1.842261285933438 -4.755955681825968 8.573291685253649 103 106 114
10.91908138652066 -1.107994238358078 5.50713284909264 88 90 96
6.088434766977262 -4.769467803969329 8.488003702530314 104 106 111
7.725189280189159 -6.131133544282913 8.906933172131685 101 100 105
-9.354295689515962e-002 -5.805309139531662 8.512784645136517 67 76 91
4.41128532755409 -6.666847417157255 8.47496260917106 105 110 115
6.284396800925076 -2.823194124804191 8.459806817570644 95 97 104
-1.067485566489663 -7.467813890998102 8.792655127527757 91 99 107
10.07536859916747 -4.763457748029844 11.036854531474 81 56 52
5.144469415043009 -7.59384464225063 8.455460394040117 110 113 118
4.843030589920754 -6.863251088632359 8.440276529879618 108 110 117
5.937302810708271 -7.090598192887995 8.452052988220727 110 112 118
7.6148485559301 -6.845999111518434 8.675633213979539 91 93 103
1.044615609090688 -7.595138985778249 8.485245752040678 102 107 114
-1.419853295003396 -2.777574111690679 8.451929167837793 68 72 79
3.639443852315163 -5.899226897374613 8.533691191162324 104 107 115
5.927763656049867 -7.721425824514156 8.460011389488496 114 116 121
8.478961690933403 -6.543056258776067 9.092946553937667 100 97 101
7.458281596617674 -5.747983960028443 8.827278283975907 98 98 105
1.908743035940508 -4.595069388250163 8.580301535831897 100 104 112
0.6389599447888888 -6.296553164821649 8.51327741221032 101 107 113
1.007994262302599 -1.493871612330927 8.41513943760682 75 80 87
-0.1961384069885475 -5.993110568903266 8.55118131855933 80 87 98
2.561357798697304 -4.499020179620404 8.564211930465119 98 102 110
2.285142088020103 -5.589790805803629 8.493990529912709 99 105 113
5.529575905962868 -6.61121031132901 8.466656265899955 105 108 115
-2.450693576192712 -7.241462223670622 10.0338427038165 95 103 111
-0.1217938170337216 -3.093410445804577 8.474749130608094 88 92 98
5.551474079681925 -4.964527466112897 8.46830714734363 99 101 108
7.370225965122625 -6.714239141891773 8.524998326012929 99 100 108
2.18185283921894 -0.4712064758179579 8.42803374245926 74 79 86
7.528371693118732 -9.594195702072197 7.669080234844516 127 102 88
1.747044314572058 -1.907621264420169 8.48651732284101 81 85 92
0.239881131864891 -7.661865522942335 8.545946262553844 75 85 100
0.4240377426894869 -0.9421437850373304 8.313624190402162 66 72 78
0.8353267864968126 -0.9539906987228091 8.422007748899327 91 95 102
-1.231536346524758 -4.082222974090889 8.519665143375082 81 85 93
