ply
format ascii 1.0
comment Created by Open3D
element vertex 1898
property double x
property double y
property double z
end_header
5.53113 -1.83313 11.1444
1.71254 2.69289 10.0854
1.45894 2.55378 10.0603
2.54607 3.40538 10.3413
1.65599 -3.0889 10.5782
5.57594 -3.1328 10.8471
-1.07929 4.07495 11.0315
5.39312 -1.01591 11.3656
5.70882 -1.63487 11.1458
2.29378 -3.36998 10.6265
-0.150768 3.92257 10.8632
1.85367 2.69258 10.1168
-3.2165 2.66416 10.6198
1.79097 -3.278 10.5822
-3.1058 1.21527 10.3879
-2.1619 2.26282 10.5677
0.770426 3.39324 10.5063
2.76724 3.39843 10.2698
1.72383 2.03155 9.98841
5.75553 -0.573602 11.1407
-1.28526 2.75296 10.7607
1.60422 -2.89022 10.5458
-0.0795355 0.0599371 9.42775
-2.5045 3.17996 10.3738
5.74467 -2.21092 10.9705
-1.64461 1.31172 10.4214
1.62707 2.10261 9.98658
0.415723 -0.406113 9.30186
2.69814 -2.86634 10.6531
-1.68848 2.69893 10.5945
0.852146 4.12793 10.8249
0.30098 -0.224439 9.3123
-2.16356 2.47439 10.586
1.87771 -2.5673 10.4837
5.84416 -2.57996 11.027
-0.943255 0.751387 10.0644
1.07817 4.12457 10.7942
1.2635 2.70649 10.2512
6.68325 -0.360832 10.7495
-1.97764 3.55533 10.8266
0.241417 0.380239 9.16339
1.06693 2.7021 10.2631
-1.50212 -0.414031 10.216
-0.854485 4.07479 11.0086
-0.134453 1.97887 10.367
0.173143 0.0692903 9.20831
-0.826917 1.41709 10.4979
-2.65739 2.2794 10.6357
-1.1459 1.19453 10.8151
-2.12954 -0.287163 9.475
-0.165272 0.771492 10.1614
-3.72382 2.67655 10.7644
5.41084 -3.43271 11.1555
-0.51471 1.17187 10.5064
1.46596 2.70712 10.1676
1.63744 -2.56813 10.5602
-0.0739771 1.43044 10.3505
2.2371 -2.87949 10.6013
1.42581 3.41168 10.4852
-2.18595 1.03313 10.3656
1.90361 2.10835 9.97357
2.05217 3.37328 10.2731
5.90079 -1.76968 10.8064
1.60037 0.206026 9.10569
6.27905 -1.16179 10.8
2.90168 3.42841 10.3843
-1.76124 2.7004 10.5947
2.1705 2.10086 9.84182
-0.166737 0.0956766 9.32194
1.46124 2.19103 10.046
2.31783 2.53684 10.059
0.621065 -0.164837 9.26181
2.17404 -2.38365 10.5058
1.68243 3.38821 10.3651
-0.743266 1.15703 10.5334
1.77364 2.54367 10.0213
5.81609 -0.982959 11.1691
-3.44402 4.00253 11.0528
-2.62825 4.07273 11.0962
0.308518 0.0716585 9.31177
0.151076 0.263802 9.07761
-0.644643 1.4162 10.3754
-1.96485 3.32474 10.6603
0.9622 0.12479 9.2908
0.742646 0.0911758 9.18515
1.98113 -3.4451 10.6176
1.58696 1.01914 9.89173
1.97722 2.10138 9.94552
-0.0117287 2.62318 10.4999
2.50566 -3.41067 10.5015
1.9634 -3.24355 10.6086
-1.42151 -0.415413 10.3002
-0.015279 2.4889 10.4464
1.80209 2.71044 10.2022
-2.71628 2.0327 10.4924
5.40447 -2.56923 11.2
-1.32791 0.0216598 10.0186
-1.3239 0.083227 10.4112
-3.58952 0.854346 9.85559
0.293852 3.62845 10.7329
2.11662 1.98033 10.2476
-2.75247 1.39426 10.3965
0.40211 0.250807 9.21613
-0.640851 1.15702 10.4595
-0.0128934 2.21248 10.388
-2.85623 2.69793 10.6844
-0.238961 0.249885 9.24639
-2.62471 2.66176 10.5763
-1.61435 4.05578 10.9842
2.18627 -3.34651 10.6056
-3.64375 3.83062 11.1743
6.72358 -1.39763 10.6253
1.50008 3.4038 10.4615
-1.76154 0.961651 10.4037
5.64895 -2.33742 11.1272
-3.04479 2.68805 10.7108
-3.63057 2.02989 10.5551
-2.91417 1.08372 10.41
1.04528 3.41811 10.5502
6.70247 -1.12092 10.6296
-1.90427 0.685676 10.2527
2.21416 0.114628 9.60779
-2.02797 2.78714 11.113
2.48197 2.82741 10.7367
3.04076 2.28208 10.6781
1.43797 2.82131 10.8205
0.221961 -0.370548 9.90641
-1.26003 0.758822 10.7724
1.0107 2.16676 10.7614
1.47071 1.46752 10.6552
-2.08667 0.844505 10.8035
2.38203 2.82809 10.7449
2.22521 0.21047 9.62664
-1.90085 -0.114924 9.99374
1.66133 2.11746 10.6682
-3.37589 0.147975 10.1401
2.1893 -2.62851 10.7231
-0.254321 1.45549 10.8398
2.95329 2.20185 10.666
5.82149 -0.534853 11.5801
-2.76635 2.10336 11.1108
-1.35605 0.89361 10.7744
-2.01753 -0.506042 10.0393
1.1283 4.12403 10.9258
1.55195 0.789828 10.6053
-4.01117 2.19975 11.2311
-3.81227 1.43977 11.1016
-1.59858 -0.517927 9.99218
0.840662 -0.41299 9.83094
1.005 2.76099 10.722
-0.055721 0.985907 10.7602
-3.61037 -0.0318094 10.1632
-2.00643 -0.113456 10.0207
2.57488 2.36804 10.6792
0.331046 -0.373311 9.89398
-0.674256 0.0518474 9.91847
-0.266732 -0.155409 9.93962
-0.42614 0.817775 10.7741
1.24801 2.8188 10.8229
-1.57112 -0.244075 9.95536
1.64395 1.4638 10.6633
3.12789 0.259087 9.38475
2.25686 2.26549 10.6797
2.90084 -0.0304825 10.0316
1.60253 0.166643 9.68082
-0.570938 -0.227273 9.93141
-1.92948 2.791 11.115
0.195625 1.29111 10.8465
1.22908 1.24951 10.7071
-2.35653 -0.0519502 10.0575
5.98393 -2.22854 11.3329
2.32814 0.109025 9.58944
-1.35642 1.08763 10.8199
1.63763 1.19236 10.6471
-2.16254 1.44236 10.9071
0.294541 0.0692545 9.86391
-3.12918 1.2664 11.0197
-1.15057 0.134068 9.91763
1.54265 2.01163 10.6049
2.3451 -2.63972 10.7103
6.02957 -1.82788 11.4209
-2.24352 -0.114763 10.0513
5.83696 -2.21113 11.3996
1.65562 2.82071 10.7535
1.44723 0.790288 10.6084
2.56082 2.21201 10.6499
0.281929 1.67307 9.85174
-1.89308 -0.0412738 10.0274
3.1189 2.68123 10.7211
-0.00341661 2.16085 10.8095
3.05124 3.83433 10.8165
0.23687 -0.166026 10.4088
-0.188198 -0.229466 10.0457
-0.435853 0.999363 10.7885
-0.260288 0.774192 10.7587
1.51208 1.0631 10.6264
5.79676 -2.31222 11.4256
-0.652166 1.43695 10.8431
-3.121 0.76298 10.9825
-3.53421 1.28149 11.0487
5.88267 -1.70439 11.4743
2.26252 2.8228 10.756
-3.8078 1.30363 11.0865
2.61638 1.46806 10.5397
0.191204 1.06788 10.8534
-2.346 -0.256012 10.0748
0.305169 3.37586 10.7297
5.86206 -1.81031 11.4506
1.06695 1.47871 10.7694
1.43958 2.14892 10.7449
-3.41308 0.890518 10.9942
1.01815 -0.366619 9.8308
-1.82332 2.78668 11.0885
-2.10065 -0.0459768 10.0392
1.55082 0.897826 10.6029
2.26974 2.73247 10.7415
-1.90544 1.25074 10.8563
1.50179 0.116497 9.66158
2.65744 -2.43323 10.7028
-1.2655 1.44021 10.8834
1.80069 0.0443023 9.65622
2.06102 2.81255 10.7719
0.343461 0.0327736 9.85022
0.34482 -0.0533735 9.844
2.25788 3.728 10.8779
2.97848 2.685 10.7631
1.14146 1.45822 10.7162
2.04337 -2.33564 10.7699
1.22399 1.39003 10.7188
2.38065 2.62023 10.7249
1.45498 0.0425095 9.66345
0.283906 1.55189 9.83496
2.26996 2.61709 10.7358
1.46313 0.882364 10.6545
2.45478 2.20652 10.6405
1.36054 0.881558 10.6305
-1.35334 0.767505 10.7772
-2.09539 -0.117084 10.0454
1.1556 0.787961 10.6651
1.2928 0.975562 10.6858
1.63247 0.784578 10.5907
3.06173 2.77799 10.7543
3.04328 1.4713 10.5155
-2.3693 -0.521548 10.0864
3.07225 3.04423 9.76703
-2.86622 1.41697 10.9455
1.89175 0.80772 10.537
-1.6482 2.78179 11.061
-2.80149 0.207939 10.1627
-0.11255 -0.239401 9.96759
0.351212 1.43549 10.795
-1.94956 2.15701 11.1267
2.36368 -2.30071 10.7474
-3.24628 -0.307725 10.1596
0.95574 -0.0931068 9.77735
1.6373 1.2914 10.6451
2.84083 -2.69512 10.6542
-0.0678837 0.778379 10.7404
5.86753 -1.0503 11.505
1.76268 2.12209 10.6737
0.816294 0.0481995 9.79953
-3.74887 1.44458 11.1022
0.220864 2.68123 10.7748
-1.14634 -0.111983 10.3967
2.13849 -2.32825 10.7811
2.43022 0.0523055 9.58968
-0.420978 2.80292 10.9916
3.11776 2.21512 10.6751
1.56605 2.12243 10.6886
-3.51371 2.77048 11.2387
-1.3184 0.0422875 9.87747
-2.21264 0.654174 10.7514
-2.09374 1.28156 10.8652
1.8707 1.46881 10.6316
2.93793 3.81251 10.8189
2 -2.54332 10.757
2.13945 2.21101 10.6951
2.91348 2.28299 10.6965
-3.66989 0.922707 11.0238
2.70265 2.19733 10.6848
-3.73803 1.2988 11.0679
-0.587083 0.145014 9.9072
2.22344 -2.30617 10.7883
2.4474 -2.33234 10.7401
-2.64555 2.32739 11.085
7.25121 3.16228 11.8932
-3.03019 1.27639 11.0232
-1.83017 -0.326193 9.9903
0.125411 0.878264 10.7758
-0.751749 1.15789 10.8181
1.86099 2.11321 10.6398
1.05112 3.46575 10.6771
1.6292 0.901156 10.5934
0.765316 -0.313291 9.83204
-1.3447 1.44293 10.889
-0.165456 0.146758 9.90609
-0.878286 2.79532 11.0138
2.53053 -2.34833 10.7321
-2.93182 -0.00203624 10.1193
-2.97341 0.143374 10.0863
-0.936423 0.0471308 9.92853
0.290022 3.01123 10.0004
2.85575 2.67686 10.7428
1.71666 0.171437 9.67598
0.35711 -0.591494 10.3615
-0.105149 -0.128574 10.1072
1.88264 -2.33846 10.6519
-3.9086 1.09044 11.067
0.217714 -0.230943 9.90505
-3.52299 0.751247 10.9991
3.16071 1.46925 10.5365
0.261228 1.44707 10.8812
-0.514986 0.770842 10.7592
2.06205 2.21484 10.7149
3.2467 4.42201 9.96066
0.408333 2.89144 9.98077
2.81087 2.77177 10.7803
-0.611384 2.12589 10.929
-3.99073 2.778 11.3092
-3.41944 1.33906 11.0416
0.176462 1.43191 10.8769
-2.96846 2.78229 11.1984
-2.46382 -0.309415 10.1138
2.66829 2.37329 10.6886
3.0663 2.92097 9.74087
0.1639 0.709698 10.669
2.15297 2.7383 10.7635
-0.152138 0.777752 10.7505
0.139274 2.53805 10.8174
3.01784 0.368138 9.42429
-2.69377 0.83019 10.9895
-3.83437 0.871133 11.038
1.73117 1.46932 10.6526
-3.74274 2.06566 11.0428
-1.4454 0.136302 9.94466
0.34028 2.6647 10.743
-0.826597 0.0501271 9.94969
-2.01552 -0.336188 10.0199
3.1835 4.45828 10.0199
-0.016323 2.02551 10.7905
1.25355 2.18301 10.7612
-2.24579 -0.0484442 10.06
0.0374546 0.996474 10.7657
-3.16536 -0.344343 10.0889
0.186369 2.85516 10.89
-0.76003 2.80512 11.0238
-0.229944 4.00723 11.1981
-3.1487 2.12037 11.1405
2.01557 0.122972 9.6353
-0.648162 0.771264 10.7638
-0.34932 -0.226399 9.92001
-3.41185 0.758607 10.9776
3.16036 1.3536 10.5189
1.50284 2.33014 10.7464
-3.97741 1.10347 11.0818
-1.82404 1.45338 10.891
1.01383 -0.216814 9.77365
-3.31191 1.18846 11.0026
-2.76271 0.83578 10.9578
-0.0667942 0.0212117 10.0559
-0.990378 0.757982 10.7532
0.897945 -0.536121 9.80463
1.9154 3.91746 10.1133
2.07556 0.203183 9.63064
0.840247 -0.043687 9.78521
6.07424 -2.5014 11.2739
1.14914 2.17754 10.7751
-3.97715 0.765168 11.0311
0.337607 2.36529 10.6836
1.51107 4.15777 10.9522
-2.40169 -0.309543 10.0777
2.42269 0.107959 9.59111
-0.347491 1.4556 10.871
5.86662 -2.05758 11.3575
3.04865 1.68398 9.5997
1.98081 1.46236 10.5772
2.82158 1.47618 10.4772
-2.35492 0.0282525 10.0817
-0.612629 3.94119 11.2369
1.97506 2.10485 10.5973
0.0724641 2.1531 10.7853
-3.03237 1.18509 11.0094
1.41083 -0.189483 9.66051
-2.74805 2.7679 11.1694
1.94807 -2.64446 10.8006
-0.156792 0.0629648 9.92894
3.02674 1.5595 9.55602
1.38619 1.32883 10.6744
-2.11432 2.12876 11.0445
-2.00601 -0.180421 9.98614
-1.9906 1.44953 10.8954
1.15165 0.97359 10.6742
2.06327 2.73528 10.7789
-0.143609 1.3068 10.8179
6.63962 -1.25047 11.4087
0.40716 1.67169 9.84542
2.36773 2.21498 10.6681
1.75423 2.82532 10.7605
2.74498 2.66286 10.7438
-2.56495 0.208348 10.0841
-3.02123 -0.0428776 10.0947
1.0181 -0.474419 9.81597
2.96015 2.39382 10.7108
5.99836 -2.94412 11.2139
-3.67727 0.798988 11.0646
-1.20973 2.80744 11.0757
-0.47779 0.0573341 9.90086
-2.84261 2.10115 11.0881
1.85368 4.19536 10.986
2.1093 -2.48993 10.7547
-1.75003 2.78184 11.0803
1.2554 2.34555 10.7333
-3.25555 1.17027 11.0355
1.34005 0.0282093 9.61934
-2.02572 2.11606 11.024
1.60832 3.45004 10.5965
-2.15013 -0.115485 10.0323
0.08018 1.42361 10.814
2.61469 -2.66762 10.6962
-3.1319 1.4345 11.037
-1.07654 -0.375091 10.2506
-0.349424 1.18548 10.8317
-1.03175 -0.0753847 9.96013
-3.17069 -0.267236 10.1074
1.77047 -0.0483763 9.65648
-1.26448 1.19972 10.8478
-3.70717 2.11032 11.1839
-1.98627 0.668467 10.8215
1.57628 1.29579 10.6515
-2.24532 -0.475259 10.0624
1.95445 4.14801 10.8819
2.37508 0.0407158 9.63025
2.7888 2.26975 10.6977
1.14109 3.42035 10.5804
-3.98283 0.876689 11.0688
2.83678 3.83628 10.9229
-3.39859 -0.00952547 10.0776
-1.69805 0.686414 10.7702
-2.83946 0.76321 10.9161
-1.36216 1.29815 10.8344
-3.72503 0.777183 10.9933
-3.01936 -0.0990285 10.084
0.20858 0.0275215 9.83914
-1.45353 2.84435 11.1952
-0.139324 1.45719 10.8373
6.20489 -1.91916 11.3567
-1.18784 2.29927 10.9849
-2.95778 0.741176 10.7532
0.116721 2.01391 10.7548
2.73717 -0.38994 9.76189
-2.25432 1.03434 10.7668
-1.89605 -0.183185 9.99869
0.335478 -0.274298 9.88446
0.107098 0.782531 10.7328
-3.05384 1.1059 10.9934
3.04032 -0.399815 9.59521
-2.61097 0.00507422 10.1132
5.96917 -2.31573 11.3856
1.96716 4.01384 10.9128
2.2836 0.146015 9.60844
-0.988135 -0.116808 9.96467
1.99004 2.82107 10.7905
-1.5396 -0.169248 9.99626
1.71766 0.785407 10.579
-3.21511 0.910167 10.9757
-0.108512 2.59532 10.8384
6.00374 -0.444813 11.6255
0.902537 0.0903794 9.78978
-0.746617 1.23703 10.8339
0.325905 -0.474076 9.87695
-3.90714 0.867873 11.0432
2.05369 0.77504 10.5257
-2.35655 -0.117749 10.0582
-1.06633 1.0424 10.7678
-0.842796 1.43259 10.8475
-2.10595 -0.499066 10.0209
-1.53565 -0.0419923 10.0439
-2.71624 -0.437039 10.9715
7.23632 3.00845 11.8464
-1.54473 2.12872 10.9846
2.73536 1.47826 10.5692
-0.941986 -0.207606 10.1524
-1.99571 1.32109 10.8673
-1.50825 1.35244 10.8524
-0.511049 1.45009 10.8509
-0.595697 2.79543 10.9854
1.92516 2.68264 10.7798
0.282442 2.88336 9.96788
-0.648947 1.23434 10.8207
1.35814 2.15722 10.7527
2.17967 2.11526 10.5907
4.96915 3.59867 11.0846
1.52743 1.37801 10.5864
-1.06962 2.63713 11.0559
1.35028 2.33771 10.767
-0.809544 0.220807 9.94216
1.14341 2.80944 10.8298
1.34626 2.81547 10.8163
-1.45064 0.217511 9.98264
0.936502 3.45608 10.6753
-1.45717 1.48669 11.0089
1.89042 0.22352 9.6368
-3.26542 -0.431351 10.1173
1.43426 3.49675 10.7035
-1.29909 2.13186 10.986
-3.89661 1.17153 11.0984
-2.45578 1.81244 10.3942
2.15705 0.777861 10.5403
-0.221236 -0.07681 9.88108
-0.174651 2.68114 10.8844
-0.113244 2.46354 10.8345
-0.0101819 4.00845 11.1701
-2.95132 -0.33002 10.1803
-1.11431 2.1509 11.0372
-0.113529 2.15764 10.8254
-1.43634 0.864825 10.7164
2.34675 -2.46657 10.7369
-2.25388 0.83496 10.7692
-3.61411 0.0986106 10.1605
0.672289 0.0427134 9.81149
-2.83465 -0.36691 10.2064
0.00375533 2.26423 10.8147
-2.00567 -0.0496907 10.0198
1.92644 2.82797 10.7991
-3.89465 1.37237 11.112
0.337156 1.3893 10.8914
-0.937459 2.13155 10.9593
1.75519 2.19288 10.6709
-1.70844 -0.172478 9.92799
-1.58827 -0.299238 9.93656
-2.26038 0.743234 10.7082
-0.05505 1.46084 10.8345
-3.90809 1.4186 11.0575
-2.24256 -0.350783 10.0673
2.46174 2.63803 10.6388
0.280286 -0.100227 9.83372
-1.31046 2.80074 11.0665
-0.981663 1.22521 10.8453
3.19086 2.87082 10.8043
-0.112276 2.2311 10.829
-1.07471 1.14598 10.8673
-0.00806865 1.42629 10.8097
-1.44735 1.40472 10.834
-2.89058 2.38115 11.1333
-2.0456 0.793218 10.7545
-2.84015 -0.069612 10.0995
5.8534 -2.45063 11.1151
0.266621 2.58814 10.6033
-1.56229 -0.242234 10.0007
-0.524978 -0.0359875 9.9121
-2.83808 -0.00340475 10.1367
1.91053 2.38714 10.5193
-0.745686 -0.110692 9.94362
-0.107938 1.42044 10.7013
-2.89784 0.182564 10.1524
1.2214 1.31359 10.6054
-2.36424 -0.348378 10.1197
2.5968 2.65068 10.56
-1.7566 -0.0920368 10.0206
-2.34429 -0.254251 10.084
-2.00014 -0.0474836 10.0775
-1.87347 0.738684 10.7558
-1.89339 -0.11281 10.055
-1.48647 1.27832 10.7776
0.259444 -0.0561013 9.84907
-2.96762 2.74421 11.1301
2.28778 2.71104 10.5264
-2.44816 -0.113885 10.1086
1.24483 1.33097 10.552
-1.82453 -0.327925 10.0304
1.97222 2.6278 10.5557
2.88792 1.42194 10.3747
-0.649702 -0.0389958 9.92592
-0.220363 2.51745 10.6969
-0.502973 -0.259567 9.90391
-0.189085 1.41798 10.7083
-1.51246 1.34317 10.8285
-2.89314 -0.144886 10.1259
-1.67029 2.72171 10.952
-0.2273 -0.145798 9.87323
1.35075 1.35802 10.5404
1.50129 2.32182 10.4826
2.39239 2.2752 10.4905
-1.51301 -0.293145 9.9922
-2.1032 -0.41239 10.0811
-2.412 0.0833304 10.0722
0.288995 0.0703271 9.8486
2.68223 0.0784659 9.81306
-0.231835 -0.227929 9.95597
-1.12078 0.0528005 9.99081
2.07974 2.17844 10.492
-1.28038 1.41866 10.8218
-1.05078 0.103119 9.96335
2.19713 0.111266 9.59759
-3.02031 -0.0416551 10.1244
0.0575268 2.45404 10.6487
-2.87594 -0.00331054 10.1392
-2.59373 1.23878 10.9599
2.19049 3.14411 10.0429
-1.37094 0.879226 10.7238
-1.89429 -0.0420737 10.0428
2.96817 2.85837 9.65974
-2.0172 -0.502868 10.0443
5.69657 -1.76552 11.0245
-1.79622 1.31672 10.8242
-2.09964 -0.240027 10.0696
-3.08755 0.885483 10.9057
-0.183936 0.763278 10.6626
-1.09708 1.20345 10.8132
-2.69261 2.73934 11.1114
0.239257 0.0333256 9.87936
2.57303 -0.213818 9.68332
0.998188 2.0851 10.559
1.78976 0.0394477 9.65092
2.46837 -2.32795 10.6615
-0.293894 1.41919 10.7266
0.100176 0.865251 10.7028
0.00489097 2.08869 10.6404
-2.53995 2.06517 10.9844
1.14776 1.21731 10.5911
-2.00526 -0.111996 10.0439
-2.98216 -0.119383 10.1247
0.0889511 0.766406 10.6758
1.0086 -0.47642 9.80634
-2.85094 0.0440132 10.1489
-1.84316 -0.44931 10.0357
0.907696 -0.0372312 9.77545
-2.10712 1.2606 10.7873
0.206757 1.41187 10.7559
0.357131 1.63849 9.77488
-2.9195 -0.22528 10.0669
5.49617 -0.534779 11.3275
5.66992 -0.447686 11.3669
1.27411 0.775496 10.5096
-0.127791 2.09275 10.659
-2.2396 -0.113618 10.0832
5.75343 -2.18259 11.1586
0.348544 0.0854148 9.83885
-0.18131 2.1579 10.6707
0.910716 0.17661 9.74138
-2.04716 2.72209 10.9875
-3.02006 -0.092407 10.122
1.28106 0.858154 10.5243
0.223275 -0.0155564 10.0531
1.88517 0.170267 9.64651
-0.473891 -0.108864 9.90144
-1.94723 2.72888 10.9975
-0.177874 2.0923 10.6744
-0.288522 3.89769 11.0476
-0.636241 2.73383 10.8754
2.17515 0.201895 9.58678
0.734056 0.0445484 9.80269
-1.0655 0.0475483 9.95098
2.86709 2.20528 10.5119
-2.18656 -0.483442 10.0885
1.34429 1.84094 10.1854
1.21399 0.760117 10.5421
0.598486 -0.451004 9.85488
6.62705 2.9357 11.4533
5.71544 -2.4342 11.1501
1.39623 0.165561 9.72515
-2.00813 0.0804252 10.0561
-0.451217 3.82617 11.0504
2.26799 0.138489 9.60053
-1.91756 -0.269343 10.0479
1.44789 0.766168 10.4731
-1.51356 2.73923 10.9772
2.34248 2.43328 10.5018
-0.417418 2.71769 10.8204
-2.60358 1.41127 10.9641
-2.97335 0.148881 10.1558
-0.102943 0.762086 10.6461
0.22796 2.1716 10.5808
-2.75354 2.7267 11.0908
-2.4672 2.18062 10.9927
-0.0804694 2.08549 10.6372
-0.59018 -0.101186 9.89927
3.11396 0.215407 9.73671
0.990508 2.68923 10.6092
-1.67096 -0.331849 10.0032
-3.15567 1.08172 10.9393
-1.57749 -0.298862 9.99839
-1.07236 -0.241078 10.0751
-0.114698 1.27084 10.68
-2.00954 0.0290774 10.0466
0.0455662 2.71389 10.6245
2.28263 -0.0466023 9.59543
1.26529 2.69531 10.5907
-1.21592 1.39075 10.8276
-2.97173 1.33236 10.9485
-0.178601 0.14481 9.8748
-1.25264 2.72817 10.9258
5.5635 -2.15035 11.2738
1.53764 1.42334 10.5328
0.511903 0.0390146 9.83556
-1.97135 -0.356456 10.0327
1.55202 0.764734 10.4926
-0.180841 2.71413 10.6866
2.90267 2.12417 10.4715
-2.09668 -0.0451799 10.0759
-2.90733 -0.107177 10.1211
0.72138 -0.441968 9.82055
2.74907 2.67382 10.5854
1.33461 1.41366 10.4817
-1.27971 1.17987 10.7865
1.88631 3.83571 10.6811
1.24095 1.1716 10.6116
-2.71265 2.06521 11.0081
0.180401 2.58194 10.5994
2.95452 1.53523 9.50088
-0.54108 1.22363 10.7358
0.346525 -0.0526961 9.84107
-2.24101 -0.0473992 10.0886
2.97308 4.27872 9.83539
0.802005 0.0456438 9.78221
-2.42237 1.24349 10.9593
-0.379144 0.758615 10.6816
2.79426 -0.0440107 9.93021
5.6018 -1.03694 11.3048
-2.14374 -0.112045 10.0756
1.15344 0.138731 9.9086
-0.46082 1.35501 10.7497
0.517964 1.83895 10.0219
-2.48356 -0.0441858 10.1179
0.764282 -0.314845 9.82952
-1.94113 1.3779 10.8381
2.84947 2.66334 10.5439
-0.0777927 1.96578 10.6499
0.220274 2.71122 10.6043
-2.3963 -0.225134 10.1374
0.970135 -0.153521 9.71265
-1.78566 -0.345287 10.0228
-1.26843 0.753282 10.7511
5.56595 -2.26211 11.2491
-1.81104 -0.0925495 10.0358
-1.15115 1.1315 10.7929
-2.0908 -0.114645 10.0833
-0.926013 2.57437 10.8589
1.9043 0.224025 9.65994
1.95686 2.12308 10.4958
-0.608056 1.35626 10.7557
3.01064 0.891092 10.3359
-2.43696 -0.0157632 10.0947
-0.185058 2.5747 10.672
-2.93886 2.34574 11.0646
-0.277056 -0.153883 9.90727
0.184235 0.975614 10.6931
2.06982 0.198283 9.63112
3.07779 4.26801 9.8128
-0.924645 2.06993 10.8257
-2.34749 -0.114715 10.1148
-0.596304 0.0564358 9.92023
-1.85522 -0.49917 10.0259
-2.63354 2.62437 11.0794
1.87202 2.04632 10.4814
0.0775166 2.22346 10.5684
0.320899 3.74007 10.9048
2.3941 0.711119 10.8161
0.229382 2.81967 9.88125
2.58053 1.43088 10.4268
-1.43606 0.139072 9.99666
-1.09068 1.42045 10.8282
-2.08069 -0.304036 10.0656
-0.294417 0.757454 10.6584
1.60164 1.42174 10.5008
0.842689 -0.0426418 9.78849
-2.413 0.916393 10.9262
1.47347 -0.217903 10.0329
1.09801 4.04968 10.8506
-1.47936 -0.0312455 9.96824
-2.9292 -0.145512 10.1148
-1.36923 1.0715 10.7656
-2.00958 -0.334917 10.06
-1.41765 0.968314 10.7265
2.98525 0.70154 10.7654
0.337695 0.0317731 9.83542
1.51374 0.115415 9.68004
5.65966 -2.24783 11.153
1.61597 0.166398 9.70203
3.20099 0.217653 9.70396
1.6373 2.62004 10.5254
0.289453 -0.095412 9.83892
-2.58834 2.73509 11.0913
1.96953 2.70034 10.5652
-0.457144 0.981218 10.7165
5.70463 -1.35108 11.3483
2.65992 1.42636 10.3268
-2.06033 1.16097 10.8293
-2.00756 -0.00787987 10.0494
2.77168 2.12315 10.494
1.54033 -0.0524328 9.69721
-0.91213 2.73727 10.9124
2.28666 0.103105 9.55852
-2.04284 2.07505 10.9246
-0.639601 -0.27106 9.93258
-0.226372 0.0576257 9.89915
-0.929598 2.65279 10.8727
-0.069794 3.90211 11.028
2.91157 2.71991 10.532
1.19714 0.947216 10.5473
0.207254 -0.458121 9.88515
1.07445 2.6888 10.5856
-0.762324 1.14332 10.772
-2.83873 0.75678 10.884
-2.96652 0.0974619 10.1503
2.24293 2.43766 10.4635
1.76815 -0.0534809 9.66139
5.68864 -2.17317 11.1831
1.17551 2.6892 10.5842
-2.12521 0.78801 10.7452
2.94348 2.96207 9.66244
0.0285968 2.29512 10.579
-1.25594 2.08626 10.8796
-1.84081 1.42561 10.808
-2.2354 -0.349384 10.1024
-1.60127 -0.127562 9.99634
-0.178022 2.5174 10.6836
-2.15827 -0.0109131 10.0693
-0.851576 1.41849 10.8036
-0.969051 2.72566 10.8953
2.30457 -2.28171 10.6781
-2.05116 -0.236055 10.0567
-0.823204 0.0519896 9.95147
-2.49221 0.759871 11.2701
0.0423995 2.02592 10.5939
1.8663 2.11675 10.4962
-1.18911 3.06911 10.2339
-2.92067 -0.31262 10.2086
-2.86151 1.41804 10.9592
-0.39268 1.41528 10.7422
2.963 1.51782 9.60438
2.78046 0.149362 9.62438
-0.539725 0.755666 10.6795
5.4356 -0.646469 11.3296
-2.29508 -0.34695 10.0891
-1.12132 2.73052 10.924
0.340693 2.81754 9.87672
0.970655 -0.138992 9.79598
-0.665131 1.41357 10.7651
0.243662 1.33864 10.7005
1.46783 0.0409604 9.68612
0.134984 1.03903 10.7192
1.46404 0.874056 10.4952
1.48726 2.02846 10.4617
-3.1256 0.827952 10.9291
-0.671572 1.21299 10.7474
1.08238 2.08071 10.5232
0.24202 2.94976 9.91985
-0.185534 0.0605052 9.86259
-1.74784 1.11262 10.7813
-2.95063 2.09644 11.0514
-2.64441 2.06121 10.9921
5.66304 -2.01785 11.2036
2.7082 2.18803 10.4943
-2.56782 1.30901 10.9451
2.33809 0.0361232 9.59637
1.87102 2.61621 10.5543
-0.303756 2.27395 10.6968
1.34264 2.23174 10.5402
-2.76444 0.812795 10.8406
-2.31339 -0.149849 10.0786
-0.435997 2.28605 10.7723
-0.985977 -0.115285 9.97012
5.73032 2.93201 11.593
2.59447 1.33135 10.3339
5.81435 -2.52801 11.129
2.38253 -2.30826 10.6637
-1.11674 0.143328 10.0078
-2.93103 0.180231 10.1374
-2.30778 -0.0113018 10.0642
-0.208192 -0.074979 9.90593
-2.35991 -0.52079 10.1256
0.629954 -0.137927 9.82657
1.40878 -0.0434557 9.68863
1.26112 2.63893 10.5911
-1.75077 -0.0443712 10.0351
2.67149 2.58168 10.5578
-2.93309 0.00166345 10.1429
0.219836 2.26016 10.5768
-2.00819 1.3063 10.8105
2.61127 1.43048 10.3616
-2.13175 2.07646 10.9178
1.2241 1.38024 10.6137
-0.482296 2.7188 10.8369
2.95074 4.14619 9.79613
2.09649 2.63007 10.5532
-2.83453 0.817121 10.8542
-1.09467 0.0941676 9.96975
-0.344643 2.72498 10.8331
2.21138 2.72383 10.5609
1.68122 0.165783 9.64625
-1.98643 2.08227 10.934
4.14237 4.39274 9.93625
-0.693797 3.14589 10.3311
-2.54058 1.40306 10.9409
0.815851 3.11112 10.1277
1.70577 4.04192 10.7877
-0.577821 -0.225878 9.91638
0.206704 -0.36942 9.87514
6.7253 2.83448 11.4879
-2.8465 2.12148 10.984
1.85894 0.040228 9.63423
-0.253346 0.250806 9.73884
-2.09718 1.10417 10.7883
-0.181519 1.27748 10.7155
-2.99653 0.103432 10.1315
0.976574 1.22616 10.5697
2.58023 1.31293 10.3849
2.53867 0.791905 10.3757
2.31583 -0.202638 9.71679
5.71938 -2.44031 11.2245
-0.383326 3.84396 11.0759
-1.00538 -0.218352 9.99043
1.27672 1.29112 10.5296
-1.86679 1.37838 10.8433
-1.00265 -0.381732 10.4596
1.38201 0.0329889 9.67374
-1.91772 1.23042 10.7986
-2.98577 -0.0175279 10.1251
-0.253357 2.27885 10.7072
1.27403 4.03861 10.8235
5.49914 -1.77679 11.2591
1.67745 0.783247 10.4606
-2.4866 2.72266 11.0589
-2.18367 -0.081953 10.098
-3.03437 1.24886 10.9235
1.90842 2.44485 10.5244
2.63066 -0.191783 9.62852
1.54239 0.878502 10.492
-0.990693 1.14017 10.7967
-0.383906 1.15727 10.7271
-1.01066 -0.253969 9.9644
-0.480753 0.0579455 9.89093
-2.89199 2.35462 11.0772
-1.4599 0.95153 10.7559
0.842321 -0.415736 9.83512
-2.07888 -0.38181 10.079
-1.07625 0.974611 10.7519
-2.13819 -0.468002 10.075
0.896141 -0.540428 9.8038
1.41296 -0.127212 9.682
-2.58247 0.817904 10.8984
2.79938 3.65134 10.5583
1.58616 2.71058 10.5524
1.84716 3.82288 10.0213
-2.76967 2.06536 11.0194
-0.019137 0.966641 10.6317
-0.0846645 2.0306 10.6454
2.37943 2.12668 10.4669
5.6364 -1.6704 11.2898
5.62647 -2.61987 11.2651
-0.44667 1.13208 10.7636
-0.948626 1.21068 10.794
-0.244467 2.59767 10.7266
5.50094 -1.03043 11.3477
1.46395 -0.200297 9.8622
-3.16375 1.27593 10.9629
-0.00204347 1.957 10.6231
-2.8847 2.7328 11.0987
-1.74038 -0.41226 10.0389
-2.82424 2.73263 11.0928
-0.615693 3.82655 11.0596
-1.30473 3.1357 10.3777
-2.58712 2.33544 11.0295
1.87865 2.69765 10.5667
0.363442 -0.587099 10.3592
-3.12171 0.747707 10.8987
1.63479 0.768798 10.4848
1.106 1.34261 10.5536
-1.44516 0.218402 10.0164
0.337076 -0.568426 10.4425
-1.16348 2.08737 10.8828
-2.95319 0.761749 10.866
-3.03493 0.120278 10.1513
-2.98538 2.35097 11.0716
1.56227 2.64967 10.5202
-1.59296 -0.517718 10.0202
-0.496156 3.85288 11.08
2.62513 2.19528 10.5368
-2.8734 -0.223246 10.0809
-2.66945 2.43805 11.0764
-0.0879919 0.968155 10.6734
-1.15428 1.41725 10.8209
-3.05528 1.0915 10.9363
1.03051 1.69199 10.6909
-0.66974 0.75946 10.6963
-2.58786 2.29179 11.0259
1.00714 -0.370466 9.81891
-1.09413 1.12549 10.7882
5.65422 -1.77621 11.2897
-0.492541 2.28483 10.7912
2.69325 -0.392869 9.72482
-2.3553 -0.00776528 10.0793
5.81825 4.17973 11.8131
-3.10781 1.1501 10.943
-2.19324 -0.0104596 10.0705
1.07771 0.765339 10.5487
5.61169 -2.16716 11.2246
-2.24056 -0.475804 10.0919
2.26856 0.0712345 9.59619
6.78089 2.70792 11.5257
-1.44058 0.913583 10.7512
1.72862 1.41967 10.4712
2.18312 2.12633 10.474
-0.68585 -0.105506 9.92373
1.19198 4.04643 10.838
-3.03462 1.3315 10.9275
-0.646593 3.85743 11.1214
2.24354 -2.29099 10.7007
1.60575 2.11004 10.4909
-2.84521 2.0678 11.0122
-1.51565 2.32628 10.8779
1.79053 2.69115 10.5526
-1.98166 -0.237782 10.0443
-2.90567 0.682775 11.2616
1.44718 1.34761 10.4987
-1.12106 -0.0713428 9.9643
-2.51363 0.809789 10.9207
0.90109 0.0894748 9.7948
0.306782 0.122707 9.81908
1.51652 2.72219 10.5805
3.00624 1.42579 10.3948
-0.0608088 -0.196204 9.89334
-2.09442 0.836029 10.7671
-0.719912 3.62088 11.0734
-0.403988 0.0584693 9.91389
-2.3983 -0.307264 10.1197
-2.40294 2.73733 11.0705
-1.50242 1.4301 10.8372
-2.00153 -0.178543 10.033
-1.32028 2.09326 10.8962
1.85611 1.41792 10.4448
1.35829 0.767792 10.4928
-1.79036 1.36875 10.7484
0.541111 -0.049711 9.81922
-2.00328 1.42565 10.819
0.308049 -0.371231 9.85484
-1.89264 -0.180087 10.0408
-1.11989 2.55114 10.888
-0.403514 2.06984 10.7636
1.53411 1.1609 10.5174
-0.34162 3.83542 11.0351
0.598048 3.13231 10.1862
-1.35293 1.4291 10.8581
-1.50674 0.832255 10.7557
-0.807452 0.224088 9.93861
-2.89761 2.14471 11.035
-1.43982 1.17963 10.7797
-0.25911 2.38797 10.6991
5.97579 -2.53397 11.1264
-1.35556 0.762855 10.7666
1.74089 2.04957 10.5015
-3.12972 1.24937 10.9609
-2.11697 0.729499 10.7612
-0.926298 0.0495702 9.94851
-2.93351 1.32735 10.9371
0.126002 2.30127 10.5791
2.99202 0.360873 9.40835
-3.03335 1.16683 10.934
0.184774 0.710286 10.685
0.656988 0.0418102 9.79011
-0.581339 0.148545 9.91247
0.237277 4.06719 10.9918
2.89467 2.56924 10.507
-1.55491 -0.166562 9.9675
0.121466 2.57895 10.5861
0.979638 3.11079 10.1118
-2.00266 0.644379 10.7197
-1.45601 1.38643 10.7928
2.23785 2.50629 10.3807
2.17454 2.50445 10.5032
0.232309 1.63791 9.77593
-3.13288 1.42136 10.9921
1.79433 3.88925 10.0962
2.74767 2.29594 10.5063
-1.78782 -0.0438553 10.0378
-0.645633 2.07793 10.8211
-1.34061 2.73229 10.9393
1.40858 2.04044 10.4987
1.44684 -0.189464 9.70827
2.56735 3.41324 10.192
-2.16522 0.645048 10.7305
1.80934 4.12152 10.1891
-1.0669 0.79403 10.7444
2.49673 1.43033 10.4314
2.35758 -0.123167 9.60622
-3.09657 0.957873 10.9229
0.330652 1.41145 10.7305
-2.35331 0.0261123 10.089
0.259127 0.139335 10.4551
0.313385 -0.473415 9.85365
-3.02704 0.931983 10.8767
2.97445 1.65522 9.5414
-1.90797 -0.441744 10.0393
-1.55219 2.53287 10.9373
-0.175871 0.00515639 9.85871
4.55634 4.41474 9.90611
2.08997 2.71547 10.5637
0.678898 -0.406756 9.83177
-0.995586 1.20644 10.7906
5.50767 -1.37693 11.3135
2.53508 2.12077 10.5173
1.12188 1.10185 10.5477
0.0446554 1.94923 10.5998
-0.191311 3.13079 10.2521
3.01754 1.31373 10.3897
-1.72879 -0.491113 10.0818
-2.63712 0.817894 10.8947
5.69714 -2.79656 11.2947
-3.12678 0.911844 10.9088
-2.99414 2.09803 11.0582
4.8805 4.34743 10.5823
0.999179 1.34093 10.6056
-0.312785 2.16485 10.6813
2.89114 2.52701 10.4143
1.03385 1.41302 10.5617
-0.153332 -0.235067 9.88452
0.114797 2.1657 10.5556
-1.63932 -0.269205 9.82306
-0.0143239 0.858008 10.4761
1.41576 0.760663 10.3312
2.00889 2.15743 10.4261
2.21744 0.242929 9.44734
0.606682 -0.278396 9.62895
0.95253 2.07605 10.4947
-2.05531 -0.29989 9.87059
1.33503 0.136015 9.50115
-2.04634 -0.089364 9.88175
-0.451253 3.96346 10.9413
-0.721702 3.37812 10.9001
2.09279 -0.0225888 9.43498
2.0236 0.213743 9.45941
0.156899 0.092315 9.64997
2.66734 2.09623 10.4018
-1.94672 3.90543 11.0283
-2.16512 3.85071 10.9305
-1.33424 0.747923 10.56
0.94331 1.3983 10.4345
2.73786 2.62499 10.4353
-0.287221 0.761156 10.443
4.88626 -0.5562 10.896
1.02494 1.20226 10.4244
2.85 0.157171 9.5629
6.8604 -1.94833 10.6001
-1.41882 0.759998 10.5682
1.15062 0.771462 10.3521
5.18615 -2.13156 10.9625
6.51713 -0.715981 10.8757
-1.93992 -0.0210374 9.88227
-1.87758 1.40686 10.658
2.16539 -2.18965 10.4273
-1.33819 1.39983 10.6414
-0.062 2.06328 10.5095
-1.00676 3.37231 10.9173
2.61163 3.33552 10.4577
1.14839 0.85053 10.3547
1.28229 3.29168 10.4987
-0.58646 -0.239586 9.74181
-1.96881 -0.23454 9.85496
2.86673 4.20754 9.74439
-2.07741 3.91102 11.0495
-1.57033 1.31892 10.6272
-1.24086 3.37837 10.9407
2.73672 2.16801 10.3915
-0.0440967 0.959884 10.4442
-2.00807 3.51307 10.9914
1.88053 0.214347 9.46481
-1.91177 3.37143 11.0874
-0.286014 0.0798914 9.67982
-0.140093 -0.00460041 9.91728
1.26022 1.40386 10.3909
-0.897569 3.37397 10.9084
2.87133 1.29299 10.2615
2.66758 2.27242 10.4352
-0.142704 3.82366 10.8826
0.751524 0.10721 9.62034
0.687431 -0.0167543 9.59637
2.91657 4.17339 9.68295
0.912074 -0.450172 9.69399
-0.419065 3.36122 10.8272
-1.93742 0.994258 10.5404
-2.0476 -0.0242037 9.89741
-1.44684 -0.356092 10.2144
2.2923 2.10556 10.3869
2.20927 2.68384 10.4436
-0.361369 -0.191534 9.72306
2.0095 0.128327 9.43692
-2.15602 0.72503 10.5698
2.81158 4.06294 9.68061
1.21789 2.68116 10.5331
-0.27357 1.39965 10.5231
-0.470684 1.39763 10.5587
2.15737 -0.0227371 9.43495
-2.07172 2.04382 10.7844
-1.3044 3.76187 10.9903
2.20469 2.53062 10.4322
-1.70169 2.68386 10.8348
-1.9758 2.68542 10.861
0.0929143 -0.335843 9.69872
-1.97428 0.812615 10.6558
2.11569 2.68945 10.4644
-1.08341 -0.0751556 9.74248
-2.18079 -0.426197 9.8776
1.42644 0.181997 9.51741
0.194267 -0.339389 9.68654
-2.01466 3.89829 11.0257
-2.13402 -0.0890914 9.89399
1.28987 0.0612035 9.51021
1.69214 2.03732 10.4526
6.6794 -0.848109 10.832
2.50673 2.62241 10.4706
-1.24035 3.76754 10.9884
6.64143 -2.15354 10.7101
-0.781855 3.37928 10.9102
-1.42623 0.874216 10.5553
-0.392454 0.755582 10.4384
5.56062 -1.72999 10.9184
1.61849 0.0581248 9.49166
-1.50523 1.16369 10.5674
1.89255 2.10609 10.4332
1.50051 0.761878 10.3332
2.86111 1.397 10.2652
0.826166 3.2356 10.3984
1.33681 0.866709 10.3422
0.0282955 1.02791 10.5042
-2.15599 1.02363 10.4363
2.79814 2.79426 9.52697
0.948238 0.761921 10.3674
-2.16523 3.4633 10.8772
-1.17441 -0.0524958 9.82769
2.42023 1.40638 10.2849
-0.00233362 2.42504 10.5324
5.23197 -1.66003 10.9708
-0.429265 0.222255 9.69313
-0.353438 3.82466 10.9061
1.51654 2.68739 10.4702
-0.953193 3.9516 10.9661
-0.381514 1.39966 10.5294
0.676736 -0.37281 9.63139
-2.02571 -0.208794 9.86626
2.80432 2.53972 10.4238
-0.889152 3.7698 10.9653
0.103192 2.29576 10.5365
1.42138 1.1476 10.3793
1.8097 2.67419 10.499
2.37979 1.94619 10.2933
-1.42736 3.96219 11.0354
0.107647 2.57228 10.562
2.1437 -0.0926566 9.42108
-0.109103 0.9618 10.4463
-1.87542 -0.295601 9.85579
0.205629 0.0537964 9.64181
-0.422363 2.67113 10.6696
0.845942 -0.329984 9.62875
-1.36507 3.94878 11.0104
-0.55724 -0.0862774 9.74466
1.42299 0.253464 9.51615
-1.91967 0.737029 10.5649
-0.889933 3.95604 10.98
6.43044 2.89168 11.3082
2.30648 2.25298 10.4074
-0.320242 -0.0494901 9.71671
1.53117 2.09062 10.4073
0.0406886 2.7142 10.6151
0.208725 -0.0276201 9.64015
-0.232266 2.48337 10.5717
-2.18468 -0.0853669 9.88229
-1.53731 0.0739176 9.84233
2.80242 2.09703 10.3802
1.72072 0.185832 9.50081
2.60766 2.16153 10.3998
-1.40358 3.24864 10.6428
-2.15545 3.29692 10.9061
1.33969 0.763692 10.3391
5.44201 -2.30901 10.8234
5.35239 -2.05039 10.8611
-2.13824 -0.0214686 9.89672
6.66828 -0.704628 10.8729
-1.20346 0.162387 9.79267
0.160553 1.6223 9.67445
-2.26632 0.742834 10.4668
0.875413 0.105899 9.61268
2.01552 2.60518 10.4721
-2.04294 -0.153386 9.87418
-0.756809 0.758189 10.4842
-2.06898 2.68747 10.8779
-0.200039 1.40121 10.5049
-1.95834 1.21595 10.6304
-2.01015 3.98517 11.0518
0.94302 0.16024 9.66482
-1.97874 1.35783 10.667
-1.94325 -0.0879857 9.88002
6.33677 -1.372 10.6946
1.07478 0.760465 10.3549
-1.06997 1.13303 10.5733
-2.13516 1.24687 10.6452
-1.54458 3.96086 11.0498
2.11142 2.4843 10.4413
-0.848708 1.12758 10.5526
-1.5819 -0.162683 9.81792
-1.89201 3.51457 10.9732
-0.628267 0.753177 10.4692
0.0197051 1.36627 10.4091
2.12327 0.117699 9.42424
1.02073 1.33175 10.437
1.42144 1.40455 10.3944
-0.720183 3.96216 10.9652
2.24521 -2.20744 10.4243
-0.462722 2.04203 10.6251
5.35556 -0.403501 11.1242
-1.5178 2.73272 10.965
-1.15864 3.98329 11.0565
-0.905342 0.0711407 9.76972
5.51475 -2.74671 10.7793
5.35385 -0.95289 11.0276
-1.61937 -0.215316 9.83366
1.42104 0.871516 10.3532
-0.366573 -0.127881 9.73833
-1.85184 1.29183 10.6005
1.08565 0.940318 10.3915
1.58584 -0.0298239 9.49217
0.0816537 0.967634 10.4937
-1.47365 0.9601 10.5458
1.85426 2.4308 10.471
-1.94623 3.5094 10.9681
1.50635 1.40503 10.3948
-0.473722 0.755461 10.4685
-1.81921 1.36236 10.6396
5.20116 -2.03101 10.9126
-2.15564 2.67891 10.8733
5.24213 -0.963668 11.0371
2.01436 -2.16312 10.4473
-0.0248631 1.92637 10.4624
0.934697 2.66909 10.5333
0.590014 0.062883 9.62265
-1.14609 1.16776 10.5426
-1.56907 -0.0195789 9.85261
1.4318 2.68866 10.4829
1.18239 0.960722 10.3404
1.04147 2.68188 10.5485
-0.825465 -0.086827 9.77402
0.663847 0.0660372 9.61169
2.08521 -2.16094 10.4377
1.74662 2.67938 10.5022
0.863664 0.243851 9.60629
-0.881065 2.07057 10.7868
-0.207197 0.759104 10.4292
5.19146 -0.492121 11.0936
6.5275 -0.863611 10.8456
1.21174 0.178844 9.53796
1.53192 1.88947 10.4342
-0.834923 2.66988 10.7017
-1.42516 1.06152 10.5858
-0.284517 0.163767 9.6898
-1.12185 0.120493 9.79521
6.33149 -0.37787 10.888
2.87011 3.55048 10.4677
-0.14125 2.05999 10.5108
-2.13175 0.830808 10.5849
-1.00796 2.69017 10.7958
-1.28816 2.69097 10.8198
-0.00594948 2.12845 10.5041
5.32354 -2.13139 10.9011
1.20684 3.98255 10.7259
1.81098 2.59737 10.4869
-0.665622 -0.0794682 9.74093
0.17783 2.91055 9.82799
-0.531291 2.68355 10.7276
-1.65018 -0.48225 9.84511
-1.17578 -0.298245 10.0235
-0.244338 2.06328 10.5332
-2.08723 3.31738 10.9511
1.81499 2.10598 10.4474
-1.2177 1.39573 10.6273
2.35155 1.40632 10.3039
2.72048 3.61073 10.4731
0.163976 -0.0724503 9.64837
-1.50393 0.156557 9.81889
1.69558 0.0586384 9.48646
-0.613941 3.95645 10.9464
1.44028 3.9608 10.6474
-1.2177 1.11738 10.6007
0.396625 -0.0238556 9.62062
1.22149 0.255836 9.52856
2.42569 2.0928 10.4138
1.54778 3.93406 10.5894
-2.13305 1.36214 10.4289
-1.99524 2.0747 10.8956
-1.85286 1.10172 10.574
-0.288887 0.936983 10.4723
1.72742 3.74023 10.4906
2.75261 1.40464 10.2578
-1.51319 1.36685 10.6048
0.0315931 2.58037 10.596
-1.94228 -0.153368 9.86459
2.80004 2.90836 9.55282
0.987721 3.95762 10.6896
1.6442 1.40779 10.3816
2.56367 2.54009 10.4527
5.38989 -2.21381 10.8487
0.176071 2.78727 9.80714
-0.269186 3.81906 10.8849
-2.23022 3.45921 10.869
1.24179 0.762868 10.3469
6.76939 -1.58849 10.6075
2.64914 1.20007 10.2303
6.8575 -1.74862 10.6426
2.4965 2.16208 10.4155
-2.0808 3.51904 11.0066
2.29954 2.5266 10.421
-0.749226 1.39097 10.536
6.35188 -1.48381 10.7728
1.35489 -0.0257953 9.5146
2.07285 0.15647 9.43728
-0.511006 3.96433 10.9458
1.44684 3.31939 10.5484
1.16912 3.32645 10.6022
-0.749603 -0.237457 9.712
1.89642 2.59958 10.4715
5.24918 -1.56448 11.0025
-1.00376 2.02538 10.6084
-1.58935 0.0378866 9.82778
-0.659091 -0.199785 9.75781
-0.692456 1.33396 10.5451
-0.477778 1.14353 10.5107
-0.554116 0.969998 10.4931
0.8725 -0.0737272 9.60519
2.57085 2.67216 9.6125
-0.565559 0.0751313 9.72933
-1.61427 3.9683 11.0112
1.12849 3.99131 10.7468
-2.03349 0.685437 10.5604
-1.17774 2.04255 10.6787
1.19688 0.0610148 9.4838
0.27253 1.51268 9.65419
-0.57706 2.02757 10.5773
-1.14831 0.963416 10.5545
2.10161 2.10941 10.395
0.0514498 -0.22067 10.0781
-1.00784 0.764784 10.5226
-0.317768 2.24557 10.5635
-0.254981 3.96334 10.9179
-0.254032 1.93949 10.5221
-1.79241 -0.445007 9.86128
-0.562126 3.77245 10.9278
-1.07189 1.39174 10.5926
0.100927 3.81391 10.8352
0.121706 -0.0309615 9.64809
-0.667211 2.18585 10.3971
-2.04644 1.28568 10.6333
2.77856 1.50013 9.36895
1.53023 0.180337 9.50389
2.73768 1.19192 10.228
1.30369 -0.107648 9.56868
-1.33744 1.16471 10.6096
1.14112 2.68164 10.5416
2.44472 2.68748 10.5034
1.19262 1.33426 10.3396
2.87694 4.3532 9.77126
6.70161 -0.60427 10.8672
5.24744 -1.89149 10.8959
2.65767 1.40945 10.2645
-0.0529169 2.55463 10.5679
-0.626207 1.1357 10.5158
-1.3659 2.702 10.8539
0.274933 1.62147 9.66504
-2.22076 0.644253 10.4306
2.7854 0.366921 9.2597
2.46072 0.785968 10.3084
-0.930365 0.755423 10.5223
1.28392 2.21519 10.4716
2.86668 2.69783 10.3125
1.05119 2.07567 10.4804
-1.5926 1.50414 10.5033
1.17335 1.27747 10.3952
2.48802 -0.355957 9.55325
2.5064 3.33396 10.4635
0.304653 4.07843 9.95459
5.36469 -2.3081 10.892
0.285375 2.78695 9.80229
6.43018 3.40099 11.3634
0.197523 -0.437708 9.68323
-2.15469 2.0501 10.792
-2.1235 -0.271386 9.87689
-0.576113 -0.196727 10.0629
0.866418 1.21264 10.4127
2.53697 1.4064 10.2182
6.42433 -2.85473 10.6415
2.66515 2.73248 9.49279
2.21676 0.119683 9.41471
-1.05217 3.96377 10.9919
1.74952 1.40234 10.3384
-0.931893 1.39015 10.589
2.79718 1.61948 9.40651
5.55764 2.88734 11.4533
-2.22724 3.84158 10.916
-1.29841 3.96533 11.0338
-0.195104 0.960034 10.4523
1.35795 2.02894 10.4475
-0.119711 2.5569 10.5824
-1.89264 0.0346512 9.88646
-0.397046 3.95602 10.9238
5.54146 2.73194 11.4268
-0.370709 2.14272 10.5504
-1.20852 0.23477 9.80315
-0.715497 2.04116 10.6476
-0.757591 1.1966 10.5371
1.81426 3.28541 10.4246
-1.16476 1.11101 10.5786
0.159209 -0.517009 10.0281
1.44124 2.01981 10.4167
-2.03729 1.40682 10.6563
-1.50768 0.232441 9.84905
-0.00981664 3.34497 10.7291
2.00519 2.68623 10.4742
6.4132 2.7633 11.2657
-0.797493 1.1695 10.2866
6.36454 -2.01163 10.6392
1.36331 1.3341 10.4123
6.51368 -0.466982 10.9038
-1.87386 0.678991 10.575
-1.80651 -0.0225832 9.86497
-0.15716 1.937 10.4898
6.18499 2.59813 11.4772
6.34948 -0.711599 10.872
-1.69871 0.678095 10.368
2.50926 1.49103 10.0292
-1.00496 -0.147772 9.82091
-0.297536 2.56375 10.6183
-0.519362 -0.22804 9.72666
-0.0498655 0.765795 10.4126
6.33648 -0.93375 10.797
-1.42098 1.40215 10.6462
-1.67493 3.31231 10.9355
0.824621 -0.52116 9.7194
-0.697681 2.68577 10.733
2.37563 0.68446 10.1892
2.36554 3.3067 10.4398
-1.85159 -0.291506 9.77766
1.52943 2.01227 10.3486
6.7222 -0.712583 10.9723
1.43192 1.42426 10.5342
1.41776 1.23379 10.3442
2.54305 2.07667 10.3306
0.199908 -0.341805 9.64262
1.85529 -2.16838 10.4102
2.02163 0.21455 9.46572
-2.02518 -0.296518 9.78191
1.4154 0.755803 10.2872
1.43826 -2.95074 10.3809
0.101261 -0.337095 9.63527
6.9199 -1.96199 10.6952
1.24006 0.756626 10.3179
-2.0137 -0.0892036 9.78822
1.80787 2.09286 10.3615
2.12539 0.117415 9.45188
1.80338 2.58432 10.414
2.30599 -3.20967 10.2635
-0.148494 1.93684 10.4402
1.2859 0.0590406 9.48281
1.80235 -3.25915 10.2693
-0.382214 1.41188 10.5676
0.70127 2.67322 10.5377
-0.0564487 2.06161 10.4577
1.51515 2.67756 10.3972
-1.90646 -0.08561 9.76359
1.93052 -2.14944 10.426
2.49999 -2.55504 9.47144
-1.67478 2.65782 10.7239
1.35585 2.01238 10.3434
6.56455 -0.713701 10.9551
2.78245 2.88264 9.48006
2.07846 -2.15334 10.4313
2.10731 2.67467 10.4051
5.25728 -0.498431 11.2527
1.53034 -2.3562 10.4005
1.43941 2.00867 10.329
1.26054 1.39618 10.3057
-0.362288 -0.252155 9.60983
1.02505 1.32693 10.3658
0.581987 2.06979 10.4522
-1.39698 0.753761 10.466
5.05667 -2.34507 10.9475
2.39081 0.0850391 9.77641
1.02644 1.19456 10.3538
2.09656 3.48595 10.438
2.04543 -2.76946 10.2441
-0.829432 0.78336 10.443
2.62327 0.0101678 9.73816
1.90764 -2.44877 10.354
1.05298 2.06446 10.3821
5.09849 -0.46493 11.2511
5.36265 -1.66746 10.8929
0.35501 1.28575 10.3365
-1.90646 -0.018579 9.78222
-2.10732 0.825588 10.502
1.89173 2.58011 10.395
-1.07529 -0.0570565 9.72635
-0.280554 0.0734267 9.63256
-2.12402 3.87395 10.9809
0.28571 1.6171 9.58268
0.951986 1.40803 10.4839
1.42364 0.177767 9.49769
-1.40867 3.92794 10.9534
-1.16035 -0.0532172 9.74744
-0.895398 0.065462 9.72329
1.14919 0.843533 10.3103
2.20006 2.67067 10.3854
0.819025 2.0745 10.4516
1.91884 -3.16616 10.3288
-0.982588 -0.258388 9.70573
5.12156 -0.75103 11.1553
-0.274189 0.162342 9.59675
-1.92619 1.20944 10.5269
6.76041 -0.609814 10.9705
5.3699 -2.05189 10.8892
-1.98342 3.29124 10.8694
-0.190406 0.958403 10.4065
0.0343235 1.02572 10.4855
1.29406 1.02237 10.322
0.290609 2.8863 9.74654
2.00461 2.1469 10.39
1.20234 0.164616 9.24712
-2.10653 -0.0189662 9.8052
2.48456 2.1501 10.363
-0.202973 0.75547 10.4109
0.484208 2.07407 10.4757
2.49776 3.31479 10.4096
-0.545233 -0.0870192 9.66937
1.8679 -2.7407 10.2749
0.717227 2.07126 10.4407
2.78186 2.76744 9.46278
1.41971 1.13961 10.3341
-2.27186 1.01039 10.5057
1.89144 -2.96104 10.3565
-0.646923 -0.200256 9.68846
0.0832953 -0.0868641 9.62735
0.610982 -0.280487 9.59569
1.63776 1.39798 10.3011
0.799954 -0.0704263 9.58582
-2.01069 -0.149227 9.77161
0.503486 1.42611 10.3979
2.73142 2.61532 10.4081
0.754042 0.104043 9.56286
-0.840366 1.12358 10.502
-0.846707 0.975555 10.5157
0.287515 2.77571 9.75612
-1.56151 1.3087 10.5835
0.95059 0.758497 10.3403
1.40295 -2.78959 10.4236
2.65264 2.25388 10.3701
2.7934 1.60985 9.41955
2.59754 3.55349 10.3704
4.55839 -3.75253 10.3596
5.29334 -0.967318 11.1503
0.203977 -0.250049 9.60936
2.90004 0.266605 9.28113
0.0955786 -0.43492 9.63864
-2.01831 -0.0223624 9.81162
-0.017104 1.93047 10.4289
1.14775 0.765879 10.3017
1.0862 0.933453 10.3238
6.91039 -1.75839 10.7294
0.170827 1.61634 9.59033
-1.41179 1.25918 10.5262
0.683118 -0.368785 9.56097
-0.993406 -0.150049 9.74424
2.54757 -2.66464 10.2611
5.24442 -2.37186 10.9306
1.22783 2.0332 10.3842
-0.357203 -0.128977 9.64755
-0.578699 -0.259579 9.66463
-1.1882 0.155779 9.70987
-0.137249 3.80041 10.8398
-1.27789 3.92462 10.9402
-1.85588 0.674202 10.5126
-1.1833 0.230121 9.69675
2.01527 -3.30545 10.2608
8.47696 2.4112 9.4647
2.55128 -2.80779 10.2621
0.272761 0.366406 9.46654
-2.1449 1.38035 10.4702
1.75083 1.40374 10.3438
1.64721 -2.25016 10.4415
1.77772 -2.19054 10.4461
0.811082 2.66753 10.5045
1.4859 -0.0829736 9.46369
-2.1077 -0.0924532 9.81084
6.38036 -0.550015 10.9381
-1.40643 0.870015 10.4627
5.27602 -1.56639 11.0598
-1.62673 -0.345927 9.78157
2.86383 4.18461 9.71841
0.0483945 2.6943 10.5179
0.910131 -0.356857 9.76593
2.86016 3.30106 10.4172
1.80697 2.66264 10.4408
1.35042 1.22568 10.3137
1.99874 2.46746 10.3774
1.65231 0.122044 9.48931
0.857716 -0.18875 9.58503
2.23857 -2.19787 10.4021
5.23549 -1.66317 10.9837
-0.709366 2.03044 10.5762
-1.16516 2.03594 10.6116
1.33896 0.760203 10.2965
1.99916 2.66952 10.3952
-1.90625 -0.152333 9.76521
2.34548 -2.25979 10.3481
0.870076 -0.0680056 9.55176
2.37791 2.24081 10.3454
2.18867 2.09172 10.315
1.04625 2.67313 10.467
0.666334 0.065774 9.57033
0.0408282 1.24277 10.5135
-1.12564 -0.278157 9.79952
0.104432 0.0846849 9.39942
2.15794 -2.18277 10.413
2.65034 2.07979 10.3419
2.09402 -0.0206781 9.47167
0.662913 0.792098 10.1953
2.10299 2.47177 10.388
0.215619 -0.0337044 9.60203
2.70011 3.57669 10.3797
-0.761054 1.40339 10.5897
-1.29002 2.14709 10.6564
2.72887 2.15552 10.3674
2.17949 -3.26729 10.2407
-0.711922 3.93968 10.9264
2.00835 0.127562 9.45421
1.35802 2.16689 10.3406
6.90146 -0.381578 10.9192
-1.65567 3.29015 10.862
2.55603 2.5189 10.4097
-0.50718 3.94242 10.905
3.56164e-06 2.14242 10.4583
2.88056 0.15489 9.73398
-1.2699 0.788439 10.5265
2.10301 -3.28377 10.2777
1.28549 3.31393 10.5352
2.00252 2.58312 10.365
-0.101637 0.961886 10.3891
2.79423 2.52504 10.3769
1.51658 1.42573 10.5608
-1.99388 3.95322 10.9833
1.41614 0.253677 9.4252
-1.98413 -0.207974 9.7379
1.22221 2.67496 10.4669
0.486185 2.67351 10.5608
2.29343 2.51908 10.3791
-1.57979 3.28789 10.8514
-0.840191 1.1997 10.5141
2.79072 2.08122 10.3311
0.115262 2.28124 10.4238
1.44677 -2.47736 10.4236
-1.41017 1.39619 10.6012
-2.07636 3.29657 10.8951
1.40236 -2.63847 10.3856
2.49444 2.60707 10.4005
-2.0366 1.41335 10.6699
-0.356627 -0.198353 9.68253
0.0890259 -0.198633 9.65749
1.2718 -2.8859 11.0549
2.92057 4.16993 9.68315
6.49349 2.92985 11.4432
5.41979 -2.73351 10.852
-0.56828 -0.135514 9.63724
-2.04449 2.03068 10.7034
1.49835 0.754321 10.3131
4.95768 2.76963 11.6741
2.12568 -0.165139 9.51963
8.33485 2.46868 8.75267
6.33677 -2.88026 10.7255
0.168873 1.50383 9.58228
0.934078 -0.116621 9.66115
0.584451 0.939282 10.3656
1.24658 0.852063 10.2587
6.41012 -0.378737 11.0191
0.201398 -0.439645 9.64238
1.43118 2.67346 10.413
1.82074 3.3147 10.497
2.34607 1.39692 10.2889
-0.475993 1.40865 10.5908
0.386545 3.94402 10.7327
2.59479 3.31093 10.3886
2.24866 1.4196 10.388
6.72159 -2.17023 10.7959
-1.92705 3.86726 10.9555
-0.743439 -0.250607 9.66615
0.459906 0.66589 10.2558
2.79449 0.364765 9.32642
4.97418 2.89861 11.6935
5.53764 -2.75536 10.8194
2.32846 0.259622 9.33503
-2.03887 2.66494 10.7771
-0.521246 -3.06798 10.595
0.689608 -0.0176984 9.5367
-0.545718 0.787271 10.4766
2.86631 1.28668 10.2809
-0.347726 3.79477 10.8341
0.845044 -0.323484 9.58605
1.67794 3.95151 10.6095
1.60648 2.66601 10.3786
4.77032 0.379011 11.4103
-0.644938 1.41855 10.6852
2.04375 -2.94193 10.2721
2.29603 2.24467 10.3596
6.81244 -0.679138 10.9151
2.47978 0.148363 9.77531
0.344574 0.834611 10.2823
-1.40801 1.0569 10.4963
-2.13601 2.04276 10.728
2.09167 2.09608 10.299
0.17815 2.89054 9.75527
5.27879 -1.90331 10.9652
0.628806 1.32624 10.3872
6.73422 -0.847394 10.9252
0.581779 2.24667 10.453
0.568398 -0.0287861 9.53825
1.33093 0.13797 9.44551
2.6983 3.30258 10.402
1.21925 0.253104 9.43834
0.108886 3.36205 10.7572
1.28573 2.20862 10.4182
-0.434102 -0.193062 9.63752
2.65984 2.52327 10.4213
-0.387755 0.753277 10.4153
1.7321 -2.36126 10.3684
-1.75623 -0.441633 9.73318
3.2527 3.85353 11.1019
-2.26455 2.04858 10.7393
2.15537 -0.0184838 9.43738
0.946346 0.937401 10.3683
4.92233 -0.972812 11.1657
0.916068 3.96065 10.7211
6.99464 -0.385411 10.8501
1.98192 3.48036 10.4376
-1.45407 2.6635 10.7154
-0.403025 1.9398 10.5225
0.188721 -0.503692 9.65889
1.41789 0.865343 10.3029
2.14961 -2.32282 10.3307
0.216309 0.0494981 9.56446
-0.750702 0.759207 10.4557
-1.72706 0.678055 10.4749
8.14365 2.30425 8.46211
5.41359 -2.48652 10.9454
1.74872 2.10311 10.3973
-0.605204 3.93376 10.8959
-0.852132 2.03547 10.6216
1.58579 -2.8986 10.3712
-2.16066 -0.087581 9.81183
0.844283 0.75683 10.2926
-1.2693 2.66604 10.7367
3.24877 4.17294 11.0973
-0.381495 -3.17912 10.5662
-1.94689 1.34354 10.558
5.51494 -2.87162 10.7551
-1.85859 1.40093 10.6029
6.6815 -1.71888 10.7754
2.43203 0.769636 10.1812
5.1922 -2.12884 10.9747
1.33545 0.858549 10.2765
2.27783 2.08819 10.2999
0.577703 2.66786 10.5061
-0.291658 -0.35005 10.1558
2.36487 3.31557 10.4588
1.35883 2.53688 10.3946
0.954893 2.06873 10.4056
2.76572 1.41671 10.3477
-0.471592 0.932372 10.4608
0.155122 0.361315 9.47081
1.87434 0.216363 9.48568
1.74105 2.66305 10.4066
0.876551 0.10185 9.5886
2.58404 1.34298 9.88135
1.82678 -2.31979 10.3836
2.39834 2.06786 10.3066
-1.93551 0.808774 10.5232
-0.280271 0.756984 10.39
4.99646 -0.56342 11.1762
1.65672 -2.479 10.3442
0.194086 4.02819 9.86449
-1.12819 -0.147719 9.78194
8.05088 2.84776 8.6035
0.370315 3.33683 10.7086
-1.4598 -0.353199 10.1852
5.43457 2.90504 11.5822
-1.58171 -0.285799 9.86475
-0.136902 2.06424 10.502
2.64459 1.2011 10.2101
1.60896 -3.19563 10.3411
-0.533201 3.36213 10.8413
-1.9482 2.66141 10.7579
-2.06007 3.8722 10.9742
6.89206 -1.6062 10.8085
1.4494 2.83958 10.6119
2.19072 2.50532 10.3294
