ply
format ascii 1.0
comment Created by Open3D
element vertex 1961
property double x
property double y
property double z
end_header
0.100134 0.777987 3.23456
1.33409 0.810462 3.46801
0.41804 0.780797 3.99677
0.363719 0.984354 3.58369
-0.426651 0.90662 3.16908
-0.224756 0.828099 2.15737
1.04613 0.891139 2.85983
0.171691 0.808481 3.24538
0.566404 0.784515 2.24993
-0.123111 0.767864 3.8336
0.565058 0.819827 3.34911
0.519999 1.07918 2.11146
1.36173 0.896027 3.35643
2.19036 0.839236 4.45478
0.00819684 0.770367 3.67239
-0.0507284 0.76423 3.8088
0.763526 0.921242 2.57787
-0.645996 0.829524 2.69353
1.04665 0.688501 5.51416
-0.224576 0.896267 1.98496
0.77203 0.820273 3.53648
1.88583 0.905954 12.986
-0.25677 0.827184 2.15179
2.2295 0.614464 11.8761
2.17655 0.202384 13.9389
0.636521 1.09837 2.10249
0.941732 0.857719 3.20482
0.321798 0.904965 1.71862
0.736877 1.02986 3.33533
0.617843 1.07886 2.14919
1.40781 1.43423 3.09542
1.65779 0.917184 3.63663
0.836207 0.771602 4.35608
2.22539 1.25229 3.77737
0.408586 0.816629 2.46078
0.867529 0.915907 2.69643
1.28741 0.887683 3.29291
0.021385 0.953026 2.7115
1.2482 0.881559 3.30714
0.599877 0.837761 3.19465
-0.591197 0.935998 2.64534
0.546116 1.03117 2.2799
1.29686 1.47761 2.9523
4.05881 0.656846 12.1856
0.625915 0.801933 2.14066
-0.53319 0.843335 2.48958
1.28489 0.817556 4.23524
0.273849 0.847616 2.78035
0.464712 1.08776 2.11076
1.16488 0.888695 3.19495
2.51898 1.15738 4.45136
2.40944 0.453668 11.6269
1.08396 0.884804 3.05808
-0.318887 0.765336 3.46371
-0.174418 1.00303 2.04057
1.62318 0.954568 3.10264
-0.224472 0.839689 2.09382
0.831281 1.12838 2.1931
0.675991 1.11593 2.10693
0.482531 1.15166 2.13116
1.22224 0.928109 2.99014
0.175069 0.679157 1.98543
0.833532 1.02646 3.43309
0.493916 1.08478 2.11621
0.566255 0.759064 4.75562
1.22507 0.845379 3.80292
-0.0177596 0.783428 3.59948
0.310557 0.772703 2.18706
0.124023 0.879134 1.75218
0.984124 0.737746 3.26418
0.329427 0.800504 3.3952
0.440015 0.924701 1.68053
2.02425 1.4548 4.17264
0.832856 0.939911 2.32514
-0.0809899 0.791651 3.37839
0.958634 1.20035 4.86294
0.121126 0.754348 2.2166
-0.534802 0.741161 5.14747
1.82738 0.957524 3.33871
1.95529 0.831583 4.40751
2.09744 0.938384 3.81187
1.59393 0.825989 4.47524
-0.174284 0.776644 4.18638
2.38738 0.544246 12.5768
0.733086 1.14428 2.06098
0.938745 0.786319 2.30483
-0.559176 0.757483 4.24519
0.252505 0.893382 1.73725
1.31005 0.837751 4.05648
3.59445 1.04331 5.84249
0.802796 0.727743 3.00546
4.47933 0.421633 10.603
-0.227764 0.952417 1.77345
3.89626 0.00713502 9.29298
1.73935 0.93539 3.40554
4.95994 0.781049 8.9764
3.64346 0.261984 13.0112
1.08218 0.970584 2.47255
0.620634 1.24189 2.95725
2.37715 0.703848 8.21981
0.754395 0.805309 3.80947
0.914728 0.943092 2.45837
0.529108 1.0622 2.12269
-0.0593893 0.806204 3.02444
1.41145 0.864317 3.60715
0.026035 0.827281 1.23587
0.162695 0.767688 4.43466
5.69945 0.691075 7.79192
0.703556 1.15024 2.06065
1.10163 0.825788 3.79776
-0.00899818 1.00884 2.53615
1.8707 1.17748 2.21526
4.75812 0.240437 4.12054
2.39587 1.29339 1.83244
1.4824 1.37227 1.49488
2.15752 1.14682 2.48666
-0.0419208 0.958883 2.6455
4.36749 0.746043 3.8144
2.51225 1.18672 2.24124
1.57345 1.1349 2.31892
5.1555 0.671701 3.70567
5.06988 0.284455 4.04367
6.21071 0.878774 3.27677
1.1019 1.25533 1.59576
5.47904 0.98163 3.34107
1.03729 1.23107 1.66385
1.50882 1.42306 1.49996
0.552202 1.03483 2.29604
1.8286 1.27784 1.66518
0.709444 0.419494 5.30987
1.71443 0.417517 5.38237
5.67985 0.628998 3.56024
1.66941 1.32235 1.56927
1.52492 1.23108 1.66613
1.12201 1.28688 1.58887
4.82592 0.768511 3.69223
3.53592 0.83227 4.11619
0.675551 1.06301 2.15596
0.0175193 0.947398 2.67843
4.55482 0.369107 4.02792
5.13404 0.423431 3.86563
0.423252 1.02344 2.34407
1.90228 1.12636 2.49792
1.17983 1.27124 1.55698
4.35458 0.410263 4.09382
4.83543 0.637881 3.81603
2.41422 0.981798 2.12832
0.508805 0.877038 3.24382
1.27471 1.42023 1.53439
0.823467 0.942938 3.01738
4.02872 0.872016 3.84694
2.25973 0.981896 3.18941
2.1003 1.21872 2.06565
2.25901 1.42327 1.74332
0.951508 0.246494 5.67475
1.20307 0.514527 5.16978
2.50042 0.992547 2.07652
0.968274 1.20495 1.69767
1.56572 1.08973 2.52016
1.23623 1.19099 1.69887
1.34157 1.3937 1.51751
3.50701 0.768366 4.19195
1.75245 1.27445 1.6299
0.357082 1.63298 2.34345
4.63513 0.961453 3.6549
2.30471 0.978265 2.23747
1.2237 0.47345 5.15109
1.51177 1.25347 1.60083
0.283471 1.08877 2.26559
2.18215 1.03371 2.94536
5.35978 0.968991 3.41107
0.844222 0.410767 5.38768
0.739596 0.942719 3.01016
1.60209 1.32445 1.54538
1.77442 1.1427 2.38393
1.33468 1.09348 2.39724
2.29016 1.01546 2.28953
1.16629 0.857076 3.39105
2.40053 1.20179 2.36461
2.3225 1.00049 2.21841
0.0705804 0.785492 3.55296
2.00086 1.53566 1.71697
5.31235 0.687441 3.6034
0.663367 0.907639 3.13334
4.95297 0.501055 3.83816
0.307561 1.06494 2.27654
0.987096 0.965768 3.00532
-0.091414 0.761279 3.58036
5.67793 0.724815 3.49637
4.89148 0.265916 4.04395
0.779884 0.991004 2.78342
0.363784 0.756006 3.71628
4.97771 0.783414 3.65459
1.94785 1.31378 1.6607
1.89458 1.27612 1.68788
0.859025 0.743846 3.90172
5.21512 0.310622 3.96985
2.02851 0.960871 2.44745
-0.180026 0.923786 2.75314
2.13458 1.02948 2.43173
1.48057 1.55058 1.65331
5.18161 0.716968 3.64318
6.45565 0.769974 3.36154
0.820448 0.843499 3.42543
6.04888 0.771035 3.38265
0.667766 0.968126 2.93212
-0.00311185 0.762597 3.58822
0.652698 0.295998 5.43073
1.09361 1.17543 1.75385
0.519037 1.11178 2.0782
0.255003 1.955 2.17913
1.30192 1.28869 1.516
2.05607 1.14966 2.50491
3.48098 1.1733 2.64008
5.28899 1.02426 3.40429
1.29267 1.23134 1.5931
1.52863 1.13964 2.24782
1.26094 1.3592 1.52563
2.31512 1.24799 1.97234
1.45603 1.22852 1.63305
4.99954 0.830769 3.58941
4.62329 0.468325 3.93984
4.6814 0.522318 3.90872
0.253624 1.93556 2.19889
1.17237 1.25187 1.56567
0.466745 0.765459 3.72455
1.70437 0.875894 3.51344
1.46604 0.973311 3.00692
1.14285 1.2431 1.57723
0.821607 1.17075 1.82943
0.725603 1.16094 1.91258
1.24204 1.20516 1.64572
6.29994 0.612662 3.28093
1.23769 1.32835 1.53229
1.24924 1.5804 1.71561
0.802427 1.13131 1.91418
4.72011 0.342132 4.01993
0.241394 1.03978 2.33823
1.53696 1.10129 2.46242
3.34736 0.627023 4.33705
1.73989 1.3199 1.59222
2.17794 1.0893 2.44643
-0.224345 1.00749 2.68302
5.79322 0.733207 3.42354
0.289782 0.829263 3.41404
0.645599 1.131 1.98372
5.73208 0.970716 3.28537
4.54894 0.416148 4.00216
5.86691 0.600149 3.54642
1.11005 1.20525 1.66278
1.70924 1.25225 1.67848
0.938921 0.407568 5.29033
0.297073 1.92422 2.2938
1.66337 0.957822 3.08437
0.50272 1.03277 2.29756
5.60256 0.837169 3.37685
0.473105 1.09397 2.13482
0.853202 1.1683 1.83241
5.65951 0.574297 3.62705
3.43009 2.53251 1.47396
1.95236 1.22052 1.93538
3.45496 1.30123 2.21472
2.34253 1.09554 2.30465
4.22821 0.497746 4.13949
2.44305 1.27942 1.8937
0.786436 1.11183 1.97283
5.62412 0.892399 3.30231
-0.0244274 0.778168 3.54521
2.52367 1.34325 1.82027
1.49611 1.04328 2.77291
1.90359 0.928344 3.28926
1.63682 0.992026 2.97593
0.356289 0.840149 3.33669
0.681189 0.831404 3.4768
1.22842 0.742455 3.94786
1.49711 0.882169 3.40367
0.380516 1.02551 2.34075
1.39373 1.23104 1.612
1.27941 1.31736 1.51122
0.991676 1.17761 1.76845
2.16551 1.22477 1.9941
-0.669371 0.88076 3.07026
3.21301 1.31316 2.12145
0.0688227 1.06968 2.43552
1.42365 1.0278 2.83222
1.78116 1.18107 2.1672
1.37088 1.05352 2.66182
0.430144 0.880466 3.23457
0.941831 0.449927 5.35815
1.89132 1.29522 1.66273
0.55865 1.07633 2.12003
0.137045 1.08511 2.38225
5.86463 0.7858 3.39357
0.297154 1.11097 2.24082
3.99377 0.573189 4.25617
0.576293 0.602352 5.30446
1.63849 1.26688 1.62152
5.65052 1.10807 3.18819
4.91872 0.989965 3.50848
0.967846 1.15345 1.81643
1.34437 1.23645 1.58675
0.955432 1.13582 1.9092
1.44858 1.25684 1.5774
1.3793 1.09195 2.46606
0.143789 1.03402 2.39972
1.94016 0.934472 2.49192
7.15183 2.03444 3.71355
6.16075 0.72256 3.34044
5.90743 0.547702 3.51673
1.79885 1.31209 1.60396
2.98286 1.32077 2.03821
5.80766 0.871926 3.29558
2.95051 0.971626 3.43477
1.64089 0.959549 3.13469
0.820528 0.985849 2.76844
1.72244 1.34001 1.56523
1.7123 1.1723 2.15355
2.08896 1.20824 2.14436
1.47606 1.41369 1.51348
1.14884 1.06639 2.5489
1.04029 1.14731 1.85971
1.879 1.31619 1.63632
1.69596 1.28149 1.61997
0.721481 1.99378 2.28143
1.13567 1.05792 2.60103
0.378955 1.08583 2.1996
0.866913 0.822126 3.55718
0.952179 1.02556 2.64726
5.7561 1.31624 2.74105
1.24904 1.18051 1.76598
6.23945 0.65317 3.42232
3.63631 0.564254 4.33592
5.31059 0.592611 3.66572
1.48438 1.0941 2.53595
2.34997 0.979946 2.1943
5.16542 0.94627 3.48576
1.56423 1.26287 1.58834
1.5789 1.3441 1.51906
5.49975 0.412406 3.78707
5.00837 0.559461 3.80298
0.964882 0.985185 2.84388
4.51885 0.719435 3.80731
1.50485 1.29226 1.55
0.582329 0.892838 3.18676
1.43308 1.27151 1.53971
0.822128 0.482883 5.26001
1.31168 1.27046 1.52293
4.28404 1.09717 3.17225
2.76148 1.50501 1.92472
5.47244 0.702408 3.56969
1.94729 1.28715 1.67375
1.64758 1.25416 1.65634
2.84849 1.26955 2.16397
0.612358 1.12302 2.01134
1.34283 1.51931 1.52878
2.042 2.38615 1.62318
4.66952 0.794799 3.69992
2.32323 1.26147 1.89132
1.73285 1.14701 2.31111
2.64874 1.13676 2.08503
1.57531 1.25117 1.62303
0.45426 1.11691 2.12604
1.00732 1.03173 2.66639
2.00845 2.30633 1.76405
1.14648 1.1774 1.75143
0.33395 0.859334 3.29133
0.916013 0.74847 3.93462
0.638779 0.921616 3.093
5.00964 1.01325 3.39056
2.14311 0.394037 5.23057
0.636245 1.18267 1.95643
3.52965 0.695971 4.20351
0.926962 1.25203 1.72482
5.63163 1.15167 3.18033
5.69754 0.682774 3.48829
-0.47716 0.938776 2.92375
6.19433 0.809233 3.32115
0.872632 1.19418 1.78239
0.800601 0.958974 2.97566
4.2861 0.599544 4.0108
0.114133 1.02753 2.4243
3.83875 0.628815 4.13102
1.40908 1.28967 1.53432
1.62117 1.27918 1.58549
5.81334 1.02632 3.18647
2.29812 1.21161 2.23842
0.807093 0.909742 3.18995
1.06704 1.24628 1.62571
2.51097 0.975477 2.03155
0.725388 0.755622 3.81427
0.474841 1.98192 2.10106
5.41277 0.519442 3.68044
3.55983 2.33644 2.01595
2.69914 1.18872 2.12495
3.64657 1.17088 2.61905
3.57919 0.632678 4.21076
1.27932 1.2004 1.65105
1.68759 1.30216 1.59477
0.440427 1.08778 2.16191
0.585364 0.83015 3.44255
4.16214 0.84977 3.83757
6.06774 0.675136 3.44848
0.886642 0.978298 2.917
1.35658 1.3803 1.51746
3.60551 1.1891 2.51711
4.56184 0.832236 3.73978
1.49997 1.47518 1.50258
0.027495 0.848403 3.22944
5.48919 0.828791 3.44437
1.21801 1.57572 1.55617
2.43644 1.3217 1.82303
2.46972 1.18489 2.31334
2.7201 1.27266 1.9925
2.63428 2.41191 1.66228
1.76172 1.20032 2.0178
-0.00556213 1.68169 3.00066
1.04769 2.14275 1.91325
0.468524 0.37763 5.47713
0.760772 0.714523 4.02722
5.28748 0.810032 3.51588
2.00193 1.33173 1.65769
1.13957 0.9037 3.1954
1.60642 1.29789 1.56067
1.2424 1.56483 1.55535
0.609321 0.957651 2.8941
1.86099 1.33614 1.61208
0.791364 1.16797 1.86896
5.7279 1.631 2.79182
5.64718 1.00522 3.2304
3.50151 1.33291 2.19012
2.24074 1.08776 2.402
5.26345 0.849899 3.4185
0.552067 0.765867 3.75535
1.35122 1.07358 2.61843
0.502248 0.74608 3.82261
1.96184 1.20355 2.08174
0.733979 1.11472 1.96921
0.454394 1.05815 2.21329
0.767062 0.680312 4.1492
5.05537 0.660366 3.78103
2.58858 1.0988 2.10327
5.59597 0.505895 3.65903
6.1218 0.510652 3.51836
0.550197 1.13718 2.02886
2.5228 1.24932 2.05968
1.6819 0.50224 5.37839
1.15817 0.993509 2.87152
1.01155 1.22006 1.67812
1.65117 1.07592 2.67799
2.60068 1.12697 2.16253
-0.347317 0.972987 2.80982
2.71568 1.30888 1.93106
6.37286 0.577108 3.27844
2.32388 1.06386 2.3105
0.974235 0.836853 3.55637
1.86556 0.780439 3.81233
4.88224 0.687721 3.78792
5.50477 0.937696 3.34211
1.66 1.50063 1.56287
2.10654 1.1384 2.51793
2.50515 1.06631 2.15496
1.17584 1.24003 1.58153
1.95628 1.19655 2.17527
1.69941 1.48248 1.57279
1.25643 0.915405 3.19549
-0.396818 0.677658 3.86879
0.97844 0.871279 3.31376
0.906306 1.20198 1.75487
4.9611 0.921094 3.48743
0.438109 1.0393 2.25219
1.74673 1.29409 1.60503
1.30584 1.18578 1.75907
1.08093 1.2142 1.61562
1.56853 1.57962 1.61882
4.57638 0.642905 3.90013
0.775461 1.09507 2.06579
4.32761 0.925762 3.76231
4.47145 1.27299 2.58837
0.3415 0.807005 3.4565
1.54738 1.30168 1.53708
1.91806 1.32749 1.62472
1.34928 1.20347 1.68335
1.66582 1.13117 2.36964
1.60129 1.21775 1.75739
1.6306 1.01773 2.92832
-0.615106 1.4783 3.29901
0.688328 1.14917 1.92583
3.9228 1.23004 2.46226
1.18007 1.2974 1.53843
2.3037 1.12091 2.39592
3.41908 0.54603 4.35761
1.58234 1.2398 1.6559
-0.522905 0.664432 3.94703
1.50955 1.2365 1.62246
5.63644 0.468699 3.6533
-0.294026 0.984166 2.74142
0.395956 0.853757 3.32684
0.191297 0.823714 3.38195
1.0924 1.15355 1.85256
4.80199 0.483982 3.86836
-0.444834 1.56489 3.17419
1.43963 1.00729 2.8997
2.37016 1.04939 2.2566
1.55786 1.28156 1.56515
2.47057 0.994834 2.11554
5.97208 1.09937 3.1813
1.59472 1.23493 1.69835
5.18616 0.905885 3.48323
1.84409 1.17281 2.24262
4.47785 0.521628 3.93096
0.475588 1.14627 2.11191
5.66974 0.779702 3.45922
1.08484 1.00421 2.76403
0.563179 1.16298 2.0162
2.76118 1.34518 1.91369
2.48726 1.40928 1.80971
0.453691 2.0129 2.09477
3.93754 1.34672 2.35402
5.92367 2.30132 2.91062
-0.0883349 1.0393 2.55643
1.38471 1.57938 1.52284
1.31733 0.882514 3.25141
0.552265 1.12252 2.06428
3.46511 0.631925 4.23515
1.14872 1.02274 2.72642
0.849758 0.446494 5.37024
1.88619 1.169 2.31539
2.04119 1.15913 2.42337
-0.0425313 1.00164 2.56118
1.70465 0.458167 5.40345
4.79366 0.312908 4.04202
5.13286 0.794878 3.55475
2.0492 0.971612 3.15424
1.39434 1.32544 1.50326
-0.567684 1.49348 3.31478
4.4193 0.813653 3.77511
0.862783 0.949746 2.98844
2.84135 2.49691 1.5087
5.77218 0.456216 3.63171
2.38776 1.08985 2.26574
6.22042 0.45504 3.58699
1.18456 1.22471 1.60215
1.42756 1.59463 1.50083
0.825602 1.13915 1.88605
2.24364 1.19743 2.24951
1.53435 0.884388 3.37668
1.8161 1.08527 2.6047
-0.117963 1.13512 2.61356
0.0448838 0.794452 3.49448
0.911984 0.918419 3.14157
1.45302 1.03573 2.80174
1.37455 1.45662 1.54668
5.54906 0.790703 3.48177
1.48804 1.3125 1.52218
7.0888 2.21492 3.71546
2.30448 1.18122 2.41071
5.31043 1.60995 2.56244
4.65871 0.744876 3.76746
1.32952 1.0891 2.46703
2.02145 1.31334 1.68316
0.85941 1.10639 2.01604
0.403976 1.06331 2.2068
0.609917 1.07287 2.12444
5.3065 0.741806 3.56699
1.20605 1.28012 1.5267
0.70897 0.789517 3.64817
-0.0697709 0.747357 3.6173
0.901559 1.17268 1.79213
0.931525 1.38026 1.75892
3.99018 0.313049 4.25864
-0.214775 0.682056 3.94256
1.89452 0.875568 2.45818
4.00554 0.936203 3.83596
0.93549 1.18065 1.76463
0.0652381 0.765692 3.61933
2.06941 0.946667 3.20358
2.09294 -0.211432 5.16932
4.82119 0.413796 3.91535
3.29756 1.25484 2.3115
5.07295 0.366386 3.92851
0.48592 0.891477 3.20263
0.968771 1.19238 1.71397
0.625082 1.08978 2.0686
1.12598 1.22949 1.59544
0.295786 1.78866 2.65496
1.75949 0.939475 3.21369
3.99892 0.771922 4.02043
0.436409 0.803779 3.55334
0.266404 1.94445 2.26368
-0.0197279 1.04991 2.487
1.16835 1.07696 2.47473
1.23587 0.984091 2.95837
4.50409 0.865875 3.78012
-0.0633166 1.82454 2.44473
6.18451 1.00106 3.26387
0.36636 2.07202 1.95135
1.23894 0.963806 3.00031
2.68953 1.37729 1.87541
3.1509 0.713513 4.45083
0.993241 0.976643 2.90024
4.01718 0.768891 3.95168
1.13989 1.31686 1.5842
1.8498 1.00365 2.95337
1.68437 1.12625 2.4658
3.00172 1.34259 1.99352
1.81861 1.42574 1.61299
0.887446 1.14718 1.84141
0.751604 0.839366 3.47497
-0.171775 1.02253 2.62935
4.1792 0.75852 3.89905
1.28989 0.951135 3.14229
0.272136 1.05336 2.28881
1.30612 1.34754 1.5062
0.623137 1.15881 1.98608
0.732636 1.20536 1.87414
0.230473 1.09612 2.29414
0.988782 0.593238 4.68575
1.4414 0.972444 3.05692
0.0070796 1.85956 2.53281
0.269531 1.0115 2.39068
1.26794 0.987911 2.93159
2.59149 1.17172 2.21129
1.09035 0.959034 3.04456
1.7778 1.15721 2.30136
-0.561542 1.55393 3.13658
-0.0859421 0.955039 2.62845
5.80115 0.502707 3.60426
1.42706 1.05533 2.59353
2.79191 2.43095 1.62592
1.31241 0.895032 3.34879
1.30665 1.48632 1.53625
0.949975 0.920707 3.11626
-0.273474 0.706865 3.77836
5.96956 0.468677 3.56799
0.743653 0.866162 3.34667
0.580418 1.10133 2.07267
2.50172 0.842187 3.74246
1.78442 1.25643 1.71148
1.89035 0.861398 3.57222
0.223426 1.01783 2.38265
3.85758 0.82619 4.1209
1.15468 1.29929 1.55314
1.7026 1.26391 1.64371
1.08321 0.991938 2.84333
5.28882 0.450001 3.78401
5.00905 0.611497 3.73551
0.832804 1.99047 2.2987
1.34355 1.21304 1.65261
0.494098 0.923384 3.01044
1.52858 1.22214 1.69585
1.64936 1.0199 2.87652
0.932997 2.156 1.95141
1.63092 1.05406 2.77025
2.44707 1.05688 2.20755
5.87646 0.842152 3.32366
5.98562 0.514807 3.53963
1.39138 1.21568 1.63088
-0.0358799 0.836348 3.28073
1.15053 1.19399 1.64226
0.346881 0.896937 3.13852
3.21048 1.27371 2.18915
0.648176 0.947257 2.95351
1.52552 2.03726 1.65082
1.97569 1.07304 2.82238
1.4733 0.926157 3.2015
1.25023 1.17118 1.79549
1.52386 1.40572 1.48659
4.32206 0.651666 3.97848
1.81199 1.29157 1.6286
0.683225 0.754204 3.81493
1.71629 1.23298 1.73903
0.0902548 0.72158 3.84476
3.31696 0.564048 4.4853
1.31909 1.25782 1.5405
0.201013 0.782288 3.5969
5.08053 0.858979 3.47355
0.971034 0.771286 3.77913
1.71421 1.24307 1.70892
1.09129 0.879623 3.31582
1.1128 1.2712 1.59206
1.99347 1.21809 2.00013
1.51105 1.27273 1.57591
5.99681 0.613707 3.47679
1.60716 1.06343 2.68741
0.558643 0.907023 3.146
3.83639 1.16506 2.71282
1.90323 0.894102 3.45975
0.531293 0.730584 3.92359
1.19223 1.06566 2.52933
7.11189 2.9843 4.65717
1.19053 0.821592 3.58616
0.774265 0.82121 3.54538
1.50763 1.05464 2.69018
4.8731 0.874702 3.62407
6.0163 2.21447 3.06696
3.85079 0.77231 4.08291
0.91239 0.97932 2.89495
5.34728 0.540501 3.76997
2.21444 1.23988 1.98057
0.719628 1.13205 1.94809
1.84206 1.26652 1.69872
0.901753 0.89585 3.23459
4.56804 0.265392 4.23346
1.29354 2.15056 1.98512
1.18704 1.34227 1.49123
1.48893 1.32063 1.43377
0.639172 1.05102 2.224
0.40239 2.02964 2.0945
1.52942 1.38661 1.49565
1.12286 0.582108 4.71965
1.34982 1.19438 1.71327
1.4706 1.22302 1.67661
0.543608 1.09006 2.08718
1.29011 1.19604 1.69229
2.1063 1.05088 2.45772
2.10547 1.05993 2.81349
1.70113 1.36542 1.54945
1.26949 1.26515 1.52967
3.37247 2.33093 2.09091
1.3065 0.575185 4.83668
2.18974 1.21183 2.18869
1.62703 1.52533 1.56497
1.83631 1.05305 2.85802
-0.00849214 1.80899 2.52567
0.0607658 0.986448 2.51965
0.21495 0.80887 3.42382
0.914104 1.15572 1.81359
1.44996 1.23954 1.60082
3.23175 1.24236 2.32813
0.533895 1.98801 2.15813
2.29961 1.41006 1.76064
0.736365 1.10264 4.14732
0.597895 1.10934 4.48664
0.136864 1.13868 5.58704
3.22953 1.06469 2.81013
5.88254 0.489611 3.34941
0.297869 1.134 5.20899
1.14593 1.04996 2.90232
5.58986 0.578362 4.57994
1.42408 1.00143 1.18325
1.36896 1.00196 1.16407
1.389 1.02019 1.12029
5.84512 0.692152 2.98212
5.78271 0.589099 3.32765
3.52347 1.39331 13.2582
1.84262 1.01597 1.49222
4.83525 1.04902 2.99963
1.07142 1.00096 1.18868
2.90137 1.15828 4.2737
2.43146 1.4056 17.8965
5.38162 -0.272251 12.7579
1.23027 0.988417 1.16467
1.17578 0.986768 1.14135
1.82987 1.05234 2.14646
1.37363 1.70468 1.10065
4.86335 1.29834 14.2623
2.80499 1.37299 15.7459
1.05685 0.977853 1.2112
5.18816 0.832845 4.43644
1.32674 1.01511 1.23498
2.26349 1.06656 2.7569
1.59509 1.04445 2.12612
5.16361 0.922839 3.11459
5.92133 0.467452 3.52859
1.44823 1.05163 2.31736
4.89394 1.43701 14.4673
1.19799 1.0004 1.09689
1.88124 1.06248 2.27185
0.999027 1.02312 1.00695
1.11796 0.984854 1.11729
3.13937 1.33644 15.813
1.18697 1.00596 1.24324
5.80966 0.604295 3.14504
1.91324 0.933257 2.15343
1.46767 1.01061 1.17399
1.25452 1.03209 1.05139
5.58739 0.718522 3.65063
5.38144 0.80474 3.00798
5.30079 0.821613 3.68577
0.977184 0.976913 1.22369
3.39874 1.45264 15.7964
2.25192 1.0563 3.46866
1.29732 0.99038 1.33209
-0.133126 1.15298 6.1986
3.09488 1.04369 2.29876
1.05186 1.07709 3.34446
5.64501 0.502243 4.65834
1.32407 1.09971 3.76173
4.72185 1.07465 2.13671
5.26247 0.841066 4.06865
5.51357 0.671107 5.50502
1.44687 1.02051 1.1418
3.32273 1.30693 15.302
5.05324 1.0164 3.61985
1.87619 1.05207 2.05361
5.46911 0.759594 3.87356
1.48484 1.06599 2.95044
1.02024 1.00239 1.0442
1.14354 0.999429 1.07316
1.15947 0.992342 1.10689
2.1052 1.0358 1.39671
1.36693 1.05222 2.65043
2.5919 1.75765 1.32749
0.837624 0.983454 1.23458
5.10242 0.945571 3.6032
2.53864 1.05076 1.57912
2.06619 0.989299 1.77925
1.26277 0.987169 1.24345
5.08553 0.874638 4.50894
4.98398 1.03594 3.96428
2.80148 1.03348 1.76399
5.12427 0.814209 6.20134
1.76554 1.05462 2.30106
4.84688 1.57816 1.75159
3.40513 1.20094 15.7987
4.16035 1.06409 3.07037
1.82657 1.06587 2.79145
5.64751 0.791718 2.92018
3.06774 1.03289 2.34196
5.64849 0.636728 3.92592
1.42098 1.09005 3.25639
5.25851 0.923256 2.82265
1.88629 1.01153 1.3686
2.31755 1.04351 1.48145
2.15685 1.0245 1.48984
3.1484 1.42562 15.7289
1.64592 1.03856 1.99254
5.02103 1.89099 2.32197
1.0833 0.97807 1.26712
5.73887 0.585654 3.6803
2.02245 1.02963 1.63471
0.952752 1.08861 3.41644
5.42302 0.771291 4.25645
1.23684 1.00941 1.08681
0.214622 1.1318 5.40289
5.91571 0.327784 5.21377
3.59099 1.21573 3.88569
1.54386 1.07218 2.85715
1.30396 0.990516 1.22874
4.78656 1.0389 4.63457
0.873498 0.991609 1.5966
4.72097 1.01458 6.345
1.30324 1.06401 2.95297
0.988612 0.975575 1.2613
5.6667 0.552086 3.87414
5.5619 0.708107 3.40816
1.92354 1.05071 1.28558
3.24244 1.74914 1.04743
5.94159 0.348945 4.99865
5.73406 0.532057 3.39104
5.49282 0.627907 4.66298
0.0982308 1.14456 5.46765
1.34948 1.00919 1.12782
1.28154 1.03278 1.31561
5.24846 0.847282 3.40612
5.59517 0.636657 4.30536
3.27025 1.02886 1.96845
1.34545 0.993042 1.21412
4.84365 1.89225 2.26906
1.65744 1.039 1.80576
3.50795 1.03006 2.08369
5.53793 0.739979 3.16864
0.993807 1.08405 3.51502
-0.213089 1.14943 6.37984
1.98388 0.974954 2.09541
1.92593 1.04422 1.88659
1.96774 0.942166 2.53046
1.5088 1.04167 2.13199
5.22401 0.872128 3.77522
1.94629 1.01659 1.40204
2.46515 1.76193 1.38961
1.21307 0.991516 1.12477
1.33325 1.0625 2.57889
5.79085 0.402302 4.97127
1.21669 1.02118 1.05823
1.53068 1.06116 3.06913
5.33502 0.760386 4.61499
1.4757 1.03334 1.82727
4.75661 1.04423 2.79909
5.54028 0.726353 4.02072
1.76591 1.05981 3.20223
1.24044 1.06157 2.9201
0.940141 1.16391 1.00857
5.10927 0.98694 3.26971
4.94867 0.990253 1.76909
1.13389 1.0023 1.3571
0.950402 0.976 1.27549
5.60773 0.57994 4.40372
4.92767 1.06161 5.34898
5.66013 0.627682 3.53905
1.32031 0.992804 1.27321
2.70665 1.03804 1.81709
2.37284 1.06378 1.73121
1.1143 1.06748 3.19812
1.15838 1.12161 0.998651
2.62799 1.0703 5.30217
3.02005 1.03471 2.01279
5.72508 0.634987 3.21194
1.4843 1.0316 1.1351
5.58388 0.667716 3.40303
1.4838 1.00331 1.20612
-0.0697697 1.22225 6.45974
5.94937 0.356647 4.82264
5.72706 0.438655 4.96661
2.75857 1.04897 1.67296
0.886286 0.985185 1.16449
5.03266 0.931627 4.3562
0.524932 1.08948 3.50221
0.956676 0.997501 1.05494
0.927091 1.08012 3.64405
1.14 1.03413 1.01263
2.06506 1.08225 1.33704
1.30953 1.00025 1.13878
5.27464 0.834612 3.06185
0.966885 0.990167 1.07366
1.68545 1.10113 1.198
3.54495 1.27917 13.0963
5.75141 0.552398 2.93811
1.4197 1.04834 2.49801
1.40642 1.00839 1.14933
1.29449 1.0775 1.05344
5.76968 0.543077 3.004
4.49836 0.785189 6.14098
0.943443 1.00871 1.04158
1.28777 1.11405 4.89784
0.757685 1.1 3.87361
5.51237 0.725863 4.16498
1.28971 1.04473 1.04546
2.98661 1.04567 1.77057
1.42585 1.03126 1.11392
4.8882 1.04613 4.30342
1.16252 1.16737 1.0374
2.06161 1.00321 1.97486
0.960133 0.981444 1.13814
1.48573 1.04457 2.38636
-0.511022 1.2078 7.20813
5.30527 0.780983 5.75846
1.07522 1.24123 1.26414
1.9736 1.05015 1.99956
0.695086 1.10409 4.03409
0.670093 1.11351 4.3212
6.0003 0.403531 4.07093
0.977188 0.984359 1.09253
4.74752 1.04751 2.86649
6.04924 0.447095 3.32727
1.04693 0.993817 1.06003
3.65208 1.041 2.26799
5.65839 0.732207 2.97863
4.3152 1.80077 1.40846
0.822061 0.995582 1.2099
1.22263 0.985874 1.2853
1.27277 0.994719 1.15294
3.20054 1.03036 2.24352
5.15322 0.879688 4.12855
1.69483 1.03925 1.87172
2.98583 1.16074 17.7721
1.04555 0.963396 1.07294
1.17836 1.01059 1.06842
0.895841 1.07734 3.48873
5.09626 1.03575 2.82546
4.9107 1.00589 4.59368
1.28891 1.18166 1.11485
5.00159 1.05415 3.48509
1.79314 0.998973 1.37063
0.780287 1.10559 4.71458
5.13656 0.853591 5.6277
2.12933 1.1575 1.35514
5.63988 0.482148 5.0811
1.5054 1.01859 1.1581
0.835543 1.05006 1.12943
2.06664 1.04957 1.99768
1.74605 1.02969 1.74275
1.62732 1.06405 2.63472
0.714131 1.04824 1.34038
5.45509 0.726923 4.36051
1.12718 1.00998 1.04362
1.3523 1.01493 1.42137
2.94799 1.04486 2.29646
1.11666 1.05255 1.00636
1.12495 0.979953 1.25047
0.228253 1.75799 2.02601
5.47951 0.74166 3.48876
5.17391 0.888017 3.26248
1.25435 1.00065 1.12157
1.79919 1.02131 1.62456
0.684319 1.04398 2.98344
0.512427 1.10962 4.47779
5.81381 0.501393 3.41687
1.60925 1.04622 1.93004
5.90884 0.47218 3.72801
5.12461 0.938624 3.45543
1.17924 1.06146 3.058
5.77757 0.590079 3.48196
5.75309 0.486894 4.38074
0.82623 1.09572 3.72943
5.13995 0.924782 3.84944
0.88295 1.01223 1.07345
5.09119 0.922726 4.00033
1.72555 1.04251 2.32878
1.07687 1.07203 3.12061
1.96161 1.05171 2.23825
1.0878 0.998254 1.04631
1.00186 0.979339 1.16581
1.37485 0.996927 1.40186
0.457191 1.11903 4.81912
1.48655 1.19746 1.18786
2.58516 1.03478 1.67291
0.257969 1.14002 5.10305
1.01878 0.997233 1.15323
1.65445 1.06964 2.80863
3.03594 1.03436 1.87294
1.27516 1.02039 1.07999
5.33351 0.802927 3.33163
2.42769 1.83573 15.5671
5.23479 0.798852 4.45006
1.46102 1.02043 1.32656
5.17235 0.934673 3.27354
4.921 0.991092 5.29087
5.36944 1.18215 8.94042
-0.684299 1.19553 6.41751
1.08121 1.05263 0.972708
1.44254 1.01805 1.2805
2.00766 1.0239 2.11515
1.02047 1.06696 3.18287
5.64149 0.714052 3.10753
0.360264 1.11609 4.81245
5.50326 0.575499 4.76703
4.49613 1.19557 17.5451
5.19725 0.919788 2.92222
0.923035 0.995865 1.06198
1.14838 1.06059 0.998923
5.84801 0.425778 4.83807
1.55345 1.04729 2.05219
0.357729 1.73999 1.75008
0.540871 1.75435 1.90448
5.5605 0.472779 6.05397
2.75899 1.08711 3.66803
2.84753 1.04846 3.93522
5.35298 0.797905 3.19992
5.53372 0.888807 2.85191
1.82404 1.03145 1.76905
4.77391 1.04205 2.74546
0.0142442 1.12056 2.68758
1.70793 1.05522 2.2575
1.38663 1.03714 2.37194
0.557496 1.11731 4.3602
1.75713 1.05448 2.51134
0.91683 1.02515 1.02873
1.33029 1.01946 1.09664
5.77871 0.527722 3.7967
0.302561 1.08946 3.92593
1.2994 1.05124 2.76674
5.30209 0.837848 3.9279
0.418997 1.12603 4.71035
1.05032 1.04719 0.97986
4.8063 1.36872 2.24379
5.52864 0.866762 2.67739
5.26558 0.966366 2.72939
1.36918 1.03189 1.09337
4.78313 1.55757 2.27308
0.828214 1.19581 1.01088
6.03396 0.440578 3.45675
5.74913 0.498528 4.15435
7.50205 0.282739 15.8231
5.8214 0.486815 3.78648
5.2211 0.879131 3.57979
1.51539 1.02979 1.81059
3.43346 1.04148 2.38397
1.53934 1.0449 2.24613
0.593459 1.05727 1.56653
0.88472 0.981267 1.23632
0.531553 1.11785 4.67796
1.83423 1.70084 0.901783
3.13564 1.03742 2.12937
1.23309 1.04862 1.03505
1.06986 1.01137 1.019
3.33641 1.10715 12.5076
5.14243 0.841668 6.6414
4.85382 0.968159 5.8687
5.66959 0.581677 4.02473
4.79778 1.05426 5.82225
1.10531 0.991957 1.08227
5.35998 1.04323 12.5951
-0.590998 1.19188 7.04555
1.08853 1.0017 1.2318
4.97348 0.943542 6.52714
4.29915 1.73948 2.50206
1.72118 1.05458 3.6971
1.99659 1.70823 0.989716
2.31957 1.75761 1.43488
0.916162 1.141 1.01962
5.82891 0.439273 4.57751
4.98791 0.893664 5.96464
1.92225 1.02124 1.53226
3.26323 1.07142 3.81925
2.74759 1.00149 1.92519
2.04633 1.03174 1.38215
0.742303 1.70816 1.36663
5.18475 0.881165 3.11049
2.06301 1.02453 1.5407
5.24596 0.885351 2.96004
1.76891 1.06399 2.96259
5.74134 0.668726 3.07001
3.46319 1.06888 4.90115
5.9149 0.451215 4.10551
5.42426 0.646318 4.84513
4.70198 1.04536 1.75122
1.29398 1.00985 1.10662
1.71076 1.00745 1.33028
5.60958 0.708327 3.29359
0.935058 1.04602 1.01969
0.844982 1.04281 1.01419
2.56595 1.0967 3.89597
0.387782 1.73849 1.75524
2.13154 0.979334 1.75048
5.45763 0.686069 4.54839
1.71823 1.09161 1.21252
1.11618 1.08916 3.67046
5.21998 0.841125 4.27509
3.72296 1.05998 2.06522
-0.252709 1.15836 6.25292
1.62486 1.04947 1.17318
0.85745 1.19464 1.02342
2.74847 1.06402 3.11688
0.406991 1.73864 1.78721
1.70483 1.03003 1.67643
5.56449 0.721346 3.79478
0.676027 1.09729 1.29098
1.20363 1.06567 2.84298
3.58847 1.82577 1.78213
4.2461 1.1232 20.2551
5.18255 0.906329 3.47844
5.18858 0.792015 4.85724
1.12036 1.2045 1.07783
3.29346 1.02823 4.8148
3.07704 1.05079 1.72483
6.02372 1.06803 2.66654
1.04556 1.0937 0.985417
4.49168 1.05502 5.85311
5.88378 0.381349 5.55914
5.06219 1.01977 3.43176
3.80881 0.625869 1.63946
3.90976 0.489912 1.74652
3.7021 0.574449 1.01272
3.96316 0.293911 1.28202
3.52422 0.908689 2.25669
3.7121 0.582007 1.12665
3.15333 1.07802 2.44541
3.80399 0.629836 1.74354
2.41711 1.52841 2.68999
2.58941 1.35297 2.46904
3.59892 0.854176 2.09027
3.16845 1.81251 6.97835
3.90806 0.454515 1.51874
3.03449 1.16863 2.69497
3.94344 0.369853 1.46969
2.6421 1.32552 2.30468
3.33047 0.898934 1.7035
2.80836 1.99484 1.93244
3.93169 0.567804 2.08086
3.31306 0.903038 1.38672
3.75283 1.07149 3.93822
3.84219 0.386726 1.09109
4.18528 0.351279 2.48324
3.97896 0.337336 1.55284
4.40301 0.925732 4.90455
4.01654 0.807021 3.16394
4.6741 0.348011 4.11646
3.19684 1.02987 2.24169
3.19407 1.16806 0.242956
2.89656 1.27231 1.93241
3.92611 0.683727 2.36452
3.48345 0.909483 2.09893
3.73155 0.592784 1.2911
3.52941 0.831113 1.64969
2.60316 1.39312 2.37588
3.81832 0.29285 0.761144
3.89115 0.277436 0.914845
3.1218 1.02574 1.61149
3.11772 1.10063 1.60432
3.80258 0.402458 0.846756
3.83912 0.361864 0.994918
4.24081 0.800619 3.90614
2.7283 1.40926 2.23444
2.74717 1.96224 1.67385
3.99638 0.362232 1.70763
3.89594 0.363215 1.27071
4.39955 0.687575 4.15623
3.66314 0.628993 0.961309
4.00758 0.273657 1.26401
3.98207 0.584349 2.33544
4.01756 0.633523 2.70332
2.74248 1.24051 2.20098
3.47483 0.601452 0.34211
4.01387 0.269908 1.38622
4.23415 0.247537 2.37715
3.47573 0.786317 1.25887
3.2211 0.930685 1.56684
3.0023 1.05935 1.81971
2.43261 1.63687 2.66604
3.58343 1.00596 2.96404
3.75947 0.466145 0.883036
4.46937 2.14084 13.0953
3.75436 0.733986 1.69285
3.86385 0.538843 1.70885
4.00429 0.518004 2.15755
3.55507 0.866604 2.01814
4.03275 0.285258 1.57939
4.39823 0.238797 2.89925
4.00563 0.328055 1.72251
2.97899 1.08526 1.9771
3.79025 0.437235 0.942116
3.80281 0.683624 1.79626
2.85499 1.17077 2.08618
4.36372 0.249586 2.67923
4.04654 0.262955 1.51766
2.89633 1.19109 1.95682
4.27537 0.285454 2.67766
3.31118 1.1078 3.00295
2.64064 1.34875 2.56717
2.88333 1.17815 2.31881
3.11635 0.990402 1.67831
3.95509 0.468905 1.83585
3.01016 1.08679 2.12347
3.8084 0.313877 0.709583
3.71047 0.55172 1.01533
3.89918 0.334346 1.25161
4.02341 0.382145 1.9401
4.32699 0.351232 2.98228
4.48899 0.862546 5.02394
4.08889 0.535802 2.61301
3.22945 0.966788 1.50578
3.54731 0.744733 1.32877
2.40538 1.48672 2.80818
32.6886 11.4128 130.588
3.75588 0.604644 1.41372
3.24675 0.967052 1.84718
3.007 1.17469 1.73441
3.3174 0.885311 1.47347
2.81487 1.38448 2.08641
3.82706 1.06859 3.97648
3.02044 1.19651 2.68109
4.16806 0.510829 2.79544
3.75362 0.645378 1.46042
4.00143 0.379453 1.80042
4.09465 0.392542 2.21511
3.05295 1.0468 1.91939
4.03047 0.421773 2.07412
3.83597 0.577961 1.67212
3.29277 1.20648 0.580648
3.91056 0.302669 1.14464
3.66752 0.763087 1.67454
2.2919 1.6948 2.93114
2.76564 1.38303 2.16245
3.15915 1.05388 2.19385
4.53217 0.776034 4.95002
3.95277 0.471269 1.94617
3.72798 0.5253 0.877223
4.24332 0.317128 2.56691
3.91585 0.559539 1.93495
4.21823 0.850202 3.89196
2.49628 1.54825 2.62825
4.64433 0.707808 5.14382
2.33597 1.51691 3.00963
2.23148 1.75385 3.04236
3.87532 0.39064 1.35856
2.65991 1.40303 2.31084
4.09717 0.311905 1.88686
3.48172 0.791446 1.4488
3.18289 1.01159 2.04497
3.96527 0.408664 1.70911
2.46298 1.4749 3.83006
3.60723 0.762057 1.5348
3.90413 0.602158 2.18692
4.08213 0.292698 1.7609
3.38231 0.847376 1.26004
2.87908 1.14478 1.99689
3.54781 1.02914 2.91446
4.13627 0.279958 1.93327
3.53842 0.774364 1.04496
3.97215 0.273229 1.17893
3.73685 0.513803 0.79245
2.54553 1.39348 2.69135
4.15483 0.44173 2.58854
3.83364 0.284706 0.693438
3.0811 1.11312 2.45489
3.33873 0.918621 1.35085
3.18641 1.18951 0.247987
3.44911 1.0921 0.58561
3.6616 0.653854 1.07965
3.84673 0.437894 1.21906
3.85607 0.346105 1.02215
3.01566 1.10477 1.77538
3.81112 0.551548 1.50705
3.60924 0.699579 1.21859
3.35876 0.871892 1.55141
3.92671 0.765242 2.62837
2.70891 1.27776 2.40234
2.37293 1.61815 2.81127
3.557 0.815515 1.70457
3.79881 0.485701 1.24652
3.80977 0.510368 1.30164
3.84436 0.468179 1.42089
4.01 0.58793 2.52244
3.43136 0.861548 1.67621
3.62545 0.81359 1.79295
3.20863 1.00121 2.08238
3.70684 0.74986 1.73384
3.72587 0.540328 0.955354
4.10861 0.263782 1.71225
3.86279 0.724761 2.18242
3.01777 1.28864 0.24868
3.10039 1.08953 2.21118
3.51471 0.778118 1.33155
2.42933 1.31179 3.42411
3.69609 1.17464 4.18872
3.74271 0.567719 1.2886
28.9497 8.83367 109.887
4.17039 0.664167 3.2546
4.32577 0.490542 3.4149
3.81304 0.457901 1.15556
2.38577 1.68877 2.79882
3.50237 0.700814 0.741721
3.1772 0.98178 1.79143
3.9351 0.316387 1.2558
4.71545 0.742774 5.66185
2.51115 1.64472 4.21102
2.56485 1.50138 2.48987
3.87653 1.20417 4.92097
3.40722 0.837794 1.37614
3.19888 1.48621 1.18063
3.79665 0.511465 1.37664
3.47718 1.4918 5.58775
2.82927 1.84071 1.54539
3.94079 1.12877 4.78896
4.17778 0.408283 2.67966
3.32195 1.16126 3.28514
3.43192 1.09214 0.640778
3.97343 0.374701 1.61437
3.04622 1.10756 1.68932
2.61295 1.50064 2.39569
4.28899 0.299608 2.56073
3.47713 1.58241 6.56078
3.41782 0.825525 0.634324
3.43627 0.819971 1.42716
2.83545 1.35787 2.03258
4.11629 0.327227 2.10673
2.46762 1.45355 2.61438
4.19694 0.301338 2.27569
3.74298 0.56288 1.15238
3.69394 1.3083 5.09865
3.70535 1.06783 3.59721
5.43245 0.75741 7.4001
2.92849 1.12673 2.09639
2.79793 1.21717 2.30221
3.53143 0.82414 1.09719
2.2532 1.60651 2.97353
3.82467 1.15053 4.41266
3.15168 1.1368 2.80187
3.66832 0.580634 0.542921
3.21716 1.02985 1.47119
3.12825 1.01851 1.94912
3.88108 0.585017 1.85567
3.15957 1.4699 1.08345
4.86653 0.584649 5.78578
3.85565 0.80522 2.4409
3.68978 0.949036 2.79419
3.76986 0.578702 1.42568
3.94202 1.08789 4.42968
2.67463 1.3844 3.01128
2.93241 1.19769 1.88104
2.6643 1.50353 2.32974
3.84963 0.333765 0.954805
40.4689 14.9777 176.023
3.77454 0.504376 1.1215
2.99535 1.14984 2.44039
3.74717 0.505186 0.99762
2.39525 1.27759 3.42255
3.29885 1.29822 0.885838
3.23115 1.43117 4.86494
3.0292 1.26573 0.177876
3.43915 0.666044 0.442855
4.45299 0.317642 3.20306
3.80583 0.397884 0.95941
3.83551 0.856195 2.76029
2.71126 1.27761 2.31728
3.52339 0.820059 1.57699
3.53395 1.28043 1.38172
3.41087 0.842493 1.57139
48.6036 13.0058 208.945
3.09694 1.22636 0.194684
2.93466 1.45776 0.579081
3.899 1.57156 7.17281
4.1583 0.588021 3.06655
2.71991 1.36262 2.97862
3.80655 0.597074 1.60182
3.99529 0.311909 1.53765
3.83198 0.368671 0.773004
3.10767 1.15274 2.72525
3.85505 0.505462 1.54174
3.33044 0.907145 1.78178
3.47103 1.39314 5.06952
3.87155 1.89545 9.25343
4.24983 0.471791 2.93249
4.0884 0.301944 2.00859
3.56565 0.590357 0.367184
3.68157 0.624766 0.898885
3.21985 0.939103 1.50256
3.78962 0.431034 0.98241
3.64735 0.596533 0.576452
2.691 1.46998 2.25821
4.52276 0.328792 3.6108
3.1016 1.02247 1.82439
3.62997 0.682186 1.10759
3.80098 0.431027 1.03863
3.24831 0.979472 1.94067
4.17758 0.325727 2.31111
2.50734 1.41928 2.65104
3.39881 0.923957 1.28718
3.42449 0.785502 0.594365
3.0179 1.15091 -0.148592
4.31712 1.56675 8.67528
2.35119 1.53228 2.94793
3.4742 0.875034 1.20638
3.10456 1.22987 0.251433
3.1002 1.16938 2.95466
4.00124 0.752012 2.93864
3.82708 0.335715 0.903455
3.32544 1.464 5.20687
3.39713 0.721688 0.271573
2.82731 1.92371 1.80114
3.37771 1.20005 3.74875
2.84853 1.16694 2.14745
3.83477 1.27311 5.18222
3.85055 0.327043 0.98959
2.2925 1.57586 2.90788
4.13143 0.397626 2.40166
3.23916 1.15037 0.266337
3.53188 0.762619 1.08807
3.69842 0.557197 0.484995
3.87723 0.360278 1.15881
3.47527 0.971473 0.741944
3.0696 1.13019 -0.0926074
4.13889 0.175849 1.41
3.80164 1.70505 7.66518
3.97359 0.919438 3.40066
4.06966 0.494578 2.43614
3.30373 0.877009 1.38747
3.01979 1.11857 2.34298
3.16191 1.19954 0.260364
3.1555 1.03874 1.56234
3.89893 0.520236 1.72268
3.46191 0.786985 1.201
3.0533 1.15695 -0.0409768
3.17269 1.09474 2.60037
3.19219 1.26649 3.85902
3.1614 1.1596 0.137139
2.96674 1.25912 1.84569
3.05815 1.67714 6.01368
4.00934 0.681977 2.6455
3.76462 1.30899 5.37558
2.9561 1.46875 0.673629
2.36343 1.60772 3.59686
3.5066 0.842593 1.74049
3.57583 0.688262 1.03087
2.31327 1.61008 2.87143
4.11413 0.476826 2.48108
4.28972 0.314025 2.76176
3.43025 1.12874 0.640017
2.46672 1.44439 2.87007
3.6969 1.38264 5.6259
3.35945 0.92394 0.275201
2.36695 1.63045 2.74464
2.37419 1.52345 3.20324
2.49918 1.48238 3.60922
3.88562 0.631684 1.99014
3.55334 0.785581 1.57085
2.92692 1.30518 0.146303
3.29219 0.969007 2.09591
2.63137 1.54945 2.43046
3.66586 1.00194 3.09808
4.93302 0.381877 5.40077
3.85656 0.442036 1.32768
3.45786 1.16065 0.762199
3.20079 1.17942 0.300544
3.58032 1.21085 4.15224
4.71458 0.867132 5.89205
3.6268 0.713289 1.34093
2.82402 1.21232 2.06104
3.38954 0.745671 0.308994
2.36214 1.57389 2.77808
3.87521 0.419935 1.33355
3.14245 1.21538 0.260274
3.55015 0.896509 2.21875
3.29059 0.947856 1.87029
3.9234 0.45917 1.64027
3.02071 1.21147 1.7521
3.21398 0.952682 1.69444
3.42055 0.871253 1.24988
3.82435 0.907371 2.84894
3.11991 1.00195 1.62505
36.7097 12.2302 157.755
3.48676 0.926665 2.18191
28.8083 7.53002 106.232
3.68068 0.594328 0.925929
4.10747 0.370367 2.2217
3.11451 1.15735 0.0493124
3.7627 0.531579 1.2142
3.92649 0.985603 3.70809
3.4061 1.88188 8.00733
3.2614 0.978753 1.45377
3.6914 0.777333 1.87292
23.7429 -1.86235 80.2143
17.5982 5.65536 62.6056
3.53891 0.986538 2.74554
4.41855 0.612855 4.05367
3.102 1.11563 -0.092914
3.77169 0.435525 0.672368
3.87298 1.2545 5.33497
2.44481 1.64115 3.80634
3.40919 0.840173 1.32163
3.29594 0.988638 1.42687
3.28673 0.934415 1.6934
3.23346 1.48622 1.28559
4.01902 0.488668 2.22078
3.77844 0.368621 0.620841
3.47432 0.814969 1.13573
3.66503 0.706978 1.40217
3.62653 1.24313 4.38029
2.93659 1.27636 1.87539
3.64462 1.54611 6.60143
3.0536 1.1686 -0.0604416
3.54418 0.746422 1.16893
16.2002 3.7005 51.3315
4.71011 0.968794 6.81229
3.00207 1.53715 5.14756
4.04897 0.327969 1.87836
3.39324 0.853582 1.42754
4.49276 0.463453 3.92298
3.13983 1.05868 2.06941
3.0732 1.17363 1.67961
3.95905 0.981996 3.95528
3.30757 0.969632 1.3707
4.10482 0.256485 1.8181
3.74412 0.903011 2.63465
3.7065 0.6991 1.36281
3.84088 0.386705 0.973318
3.75259 0.498857 1.04382
4.68992 0.299601 3.6272
3.80123 0.323729 0.773842
3.75792 0.938957 2.8959
4.13627 1.38975 7.00897
4.61956 0.372287 4.14394
24.1308 -2.59764 84.4246
3.00976 1.07538 1.7813
3.98462 0.131179 0.918371
6.64118 0.759153 3.23507
3.70555 1.00107 3.68283
5.90179 1.1318 2.98647
2.19291 0.953521 1.97369
6.19426 0.801581 3.55071
9.4562 0.471802 1.67441
4.49794 0.123421 6.31157
2.67885 0.878229 3.4364
3.6374 1.02753 3.43352
6.57464 0.656941 3.77213
2.75702 0.95413 3.08153
3.17777 0.931381 3.58501
2.55269 1.08737 1.82764
5.43386 1.11192 3.01865
6.16085 0.735849 3.65271
5.80758 0.719563 4.05016
5.98445 0.756123 3.78931
7.60561 1.0984 1.45362
5.14296 1.04969 3.52051
3.09762 1.17562 1.95905
5.5266 1.13342 2.92891
3.579 0.86266 4.74713
5.58448 0.978879 3.30646
5.07324 0.873849 4.15224
5.82705 0.404143 4.98436
3.28476 0.920024 3.7653
4.41517 2.04751 1.73509
9.29518 0.548455 1.62205
6.14643 0.858847 3.43791
3.10044 1.25874 1.94001
5.09817 0.946718 3.93133
5.63057 0.51039 4.73233
6.12703 0.788073 3.66305
7.5379 1.14485 1.46117
6.05331 1.03712 3.08574
4.37542 1.07324 3.70299
5.24612 0.973966 3.67337
2.0858 1.00575 1.73198
7.45927 1.19292 1.33839
8.67653 0.573333 2.35541
3.38344 1.12101 2.18606
5.28451 0.929442 3.78274
5.75821 0.572718 4.46308
3.07779 1.12317 1.993
2.47126 0.866646 3.21065
4.78059 1.19246 2.9411
5.28908 1.22415 2.87304
2.41653 1.12177 1.71981
2.51273 1.06279 1.88698
5.33361 0.781067 4.28842
2.39653 1.07649 1.76142
2.66517 1.07647 1.923
6.64067 0.808711 3.13585
3.42785 0.948672 3.70613
4.54241 0.774166 4.94733
4.34349 0.897789 4.75291
5.74609 0.873142 3.68047
2.86879 1.24368 1.87467
6.31238 0.840209 3.40222
6.362 0.952935 3.20689
3.26073 1.01186 3.10869
5.20979 1.06458 3.43175
5.46585 1.23723 2.84106
4.91954 0.890826 4.15079
5.84731 0.944775 3.31606
2.93962 0.916713 3.46281
2.14836 1.14023 1.61772
5.38721 0.854083 4.07633
5.6869 0.534307 4.62185
5.38189 0.687912 4.40311
5.55497 1.09505 2.94505
3.26921 1.08057 2.40286
5.29998 1.0838 3.27848
5.59232 1.82294 0.789837
5.06558 1.11012 3.49917
5.52569 1.02135 3.17101
2.47329 1.10144 1.74597
4.42328 0.0580714 6.56336
3.27699 0.884269 3.77057
6.36631 0.669395 3.79759
3.03057 0.981987 3.09681
5.60821 0.845962 3.95405
3.3308 1.14177 2.0921
2.83965 1.11115 1.91155
3.02466 1.03984 2.4815
4.91062 1.08366 3.73364
3.19253 1.22764 1.98711
9.66559 0.445953 1.50449
5.82832 1.47658 1.12226
5.22775 1.13284 3.2738
6.30052 0.563208 4.24503
3.75752 1.13753 2.42252
3.28687 0.941887 3.61611
4.88738 2.00926 2.08464
5.89586 0.904154 3.42057
5.46173 1.31221 1.95952
4.59119 0.909888 4.559
5.78206 1.05038 3.07097
2.57393 0.866662 3.3913
2.06815 1.11871 1.59285
6.40881 0.613711 3.94378
2.17762 1.04636 1.68449
3.22952 1.11875 2.09081
5.38065 0.945824 3.64943
5.23739 0.920859 3.90686
3.4601 0.692243 5.13844
2.88297 0.923018 3.35425
4.73931 1.04842 3.94475
5.73494 0.702935 4.15283
5.39693 0.635426 4.50312
5.4593 0.957289 3.56064
3.04281 0.92767 3.49063
4.75203 0.779336 4.81145
5.27133 1.91714 1.25936
3.6073 0.897288 4.39159
4.71761 0.986883 4.15269
3.32824 1.08192 2.33644
4.15384 2.05672 1.18678
3.297 1.09144 2.2856
5.60806 0.740445 4.19303
5.49518 2.20231 0.743552
2.70104 0.894916 3.33175
5.69586 1.0127 3.16369
5.1371 0.897573 4.03675
3.11386 0.989062 3.1767
4.45114 0.803367 4.86218
5.84993 0.895203 3.55078
2.19558 1.09453 1.64349
7.32608 1.25287 1.30379
5.60956 0.675339 4.278
4.34738 2.06226 1.26216
2.67149 1.81072 1.45483
5.52192 0.65661 4.37394
7.41937 1.10327 1.31132
6.4173 1.38398 2.46455
2.168 1.01589 1.85677
2.82293 0.891893 3.45721
2.61412 1.09604 1.83418
3.14338 1.03368 2.82192
2.27452 1.1442 1.68088
4.95873 2.03644 2.03377
4.85345 1.06413 3.86878
2.46214 1.0334 2.02257
2.8614 1.05675 2.25686
4.19982 1.12767 3.06917
5.19204 0.802173 4.29149
9.47888 0.571381 1.4732
3.20192 1.89412 1.43038
3.57674 1.12164 2.39908
2.63578 1.21999 1.79323
6.53901 1.23501 3.18494
9.00282 0.544671 2.34693
4.8725 2.06616 2.0647
2.41911 1.19729 1.71086
4.95186 1.18652 3.01711
3.20035 1.08588 2.292
3.60513 1.17963 2.15154
2.43777 0.887226 3.1426
3.64693 0.979043 3.74645
5.94235 0.810246 3.67556
3.84071 1.17607 2.2875
4.37748 0.760748 5.10813
5.15012 1.351 1.95503
5.8467 1.48425 1.02835
2.45443 0.86084 3.32939
5.53327 0.9708 3.40612
3.13071 1.10772 2.09509
2.57878 1.19378 1.80916
2.88664 1.09175 2.00324
6.04485 0.694593 3.9373
2.41561 1.03385 2.00158
2.55133 1.05919 1.95384
2.70812 1.803 1.6409
3.0686 0.909045 3.60337
4.55915 0.960483 4.52804
4.96868 0.794838 4.40615
2.80821 0.932677 3.15539
4.21054 2.05317 1.21608
5.34209 1.0455 3.32376
3.42349 0.979688 3.53671
5.40068 0.995879 3.44515
3.73068 1.13208 2.47042
4.63643 0.703085 5.10108
2.71281 1.26107 1.814
5.05951 0.404923 5.63552
2.4333 1.06733 1.82588
4.52664 0.689788 5.23418
5.46605 2.15845 0.784496
5.5443 0.884659 3.82553
9.30521 0.475897 2.11512
5.21561 0.463773 5.19142
3.43281 1.23737 2.06175
3.6808 1.05576 3.16262
3.10492 1.00427 2.99459
2.99889 1.0819 2.11134
5.09066 1.22169 2.76267
6.41226 0.710882 3.66948
6.06744 0.493404 4.60559
6.21397 0.608662 4.0633
3.67311 0.622627 5.64343
3.01565 1.06164 2.30221
4.12483 2.10724 0.635564
6.18071 0.90262 3.27201
3.58373 0.795741 5.38666
6.38924 0.586962 4.10898
3.88339 1.15183 2.37073
2.23205 1.03426 1.7743
3.39279 0.99278 3.40452
4.05658 2.05274 1.14208
2.13361 1.0046 1.94851
5.38176 1.05434 3.18583
2.73545 1.12229 1.83835
2.89042 1.06037 2.171
4.36653 2.15572 0.673721
4.40634 0.829117 4.82029
3.2259 1.04661 2.79048
3.50051 1.93396 1.64141
5.61351 1.20983 2.88963
3.63403 1.93087 1.75625
2.08836 0.999795 1.86478
4.68624 0.879565 4.55177
2.25194 1.07572 1.67531
6.02425 0.93825 3.29481
3.24081 0.990182 3.31078
3.18231 0.905243 3.81026
4.52645 0.719191 5.053
2.93766 0.884609 3.67058
5.88979 0.857111 3.56882
5.58713 0.584 4.47795
4.61446 0.586799 5.52861
4.08803 1.03402 3.76593
6.18135 0.405615 4.66392
2.52303 1.2333 1.73761
6.83522 1.58775 3.20278
6.53844 1.39894 2.73825
3.84728 1.11436 2.81867
5.01223 1.31336 2.27978
2.49097 1.16785 1.75662
3.20716 0.894634 3.92322
2.64639 1.06223 2.01962
5.85765 0.702042 3.9624
9.51485 0.424099 1.68929
3.87798 2.05845 0.961654
4.81732 2.05183 2.17327
2.86031 0.972823 2.88099
2.46526 0.920209 2.70201
2.1047 1.01741 1.69661
3.13937 1.06888 2.41997
4.15184 1.21418 2.35461
5.87209 1.03028 3.0948
5.99796 0.609357 4.23218
3.03762 0.958315 3.46024
8.44915 0.759785 2.54909
2.77554 1.07596 2.03588
2.95631 1.06799 2.195
3.80399 1.97995 1.58057
5.42026 2.17607 0.867921
3.36652 0.80169 5.12814
4.96062 1.05881 3.84399
2.59379 0.86981 3.3379
2.50133 1.0341 2.03828
5.77655 0.987395 3.19915
3.25435 0.997018 3.26211
5.24084 0.403209 5.32553
6.41229 0.767519 3.24884
4.86245 0.719143 4.8705
2.98803 1.07403 2.17179
3.32422 1.95755 1.18914
4.9847 1.43539 1.99465
3.89763 2.02762 1.2135
2.15143 0.854737 1.89103
5.72423 0.4838 4.76995
5.49278 0.535124 4.75636
5.70834 0.914584 3.59015
2.76341 1.08508 1.93606
2.14574 1.11765 1.63008
4.22622 1.07651 3.56179
5.50367 0.78138 4.02593
5.95134 0.460288 4.70519
3.21415 1.29329 1.96787
3.1462 0.945485 3.44812
2.46302 1.07343 1.80814
4.36784 0.769286 5.28669
5.91891 0.437507 4.84977
4.34262 2.06817 1.33904
2.15516 0.969427 2.08417
2.71508 0.952721 2.94569
8.87203 0.525923 2.4776
2.36647 1.18819 1.69751
2.32118 1.04784 1.77926
2.9361 1.20326 1.9022
4.1885 1.5721 1.74707
6.77922 0.758678 3.16316
5.25869 1.03275 3.43949
2.58082 0.88412 3.25656
4.93551 1.56984 2.22365
5.77698 0.775687 3.93182
5.88464 0.631721 4.17744
2.35983 1.14197 1.71315
5.1198 2.21617 1.02678
2.4297 1.22872 1.71969
2.12222 1.00631 1.78479
3.28371 1.21477 2.00564
2.07383 1.05386 1.61351
4.72065 0.552073 5.4595
3.06937 1.03005 2.5939
4.94478 0.730948 4.852
4.12513 1.13444 2.94543
4.11681 0.812949 5.75506
4.24328 2.09145 1.08582
3.67032 1.05659 3.00465
6.62645 1.57799 3.14866
3.02047 0.860904 3.616
6.54315 0.642379 3.84663
5.53491 0.833544 4.05175
2.50437 1.01035 2.14569
3.37119 1.95441 1.13853
2.98256 0.999889 2.58311
5.34817 1.09204 3.17197
2.33414 1.06232 1.74511
3.49847 1.00527 3.42957
2.28793 1.07873 1.68348
4.4775 2.07353 1.34463
2.80372 1.21024 1.87304
4.72457 0.881858 4.40646
2.57731 1.21022 1.78079
2.64585 0.900437 3.23
2.13993 1.09225 1.62169
5.18955 0.664495 4.86432
4.16328 1.09566 3.45697
2.83396 1.83108 1.52738
3.20371 1.02061 2.99643
4.57585 0.9994 4.15137
2.74644 1.25629 1.81086
2.98231 1.05147 2.40791
5.08134 2.20013 1.09912
2.43076 0.919739 2.89231
5.86514 0.546336 4.4998
6.35676 0.772947 3.40858
2.80916 1.23704 1.86315
7.60292 1.28203 1.23004
5.15987 1.31373 1.88765
3.11659 1.2976 1.95601
4.59261 0.949239 4.30725
7.33934 1.23715 1.43799
4.62579 0.15032 6.20687
4.16152 2.04004 1.30089
3.38012 0.964651 3.61422
5.04383 2.16999 1.18775
2.49602 0.84333 3.52589
4.90341 1.4759 2.01014
3.50889 1.06322 2.87724
2.57794 1.13862 1.76393
5.28236 0.684471 4.52974
2.41132 1.09487 1.72764
3.73268 0.895897 4.62276
4.3449 2.09228 1.1206
3.44191 0.923302 3.94656
2.85911 0.984739 2.80835
2.90348 0.891716 3.54956
4.15364 2.1076 0.763118
2.98629 1.27897 1.90156
7.73197 1.17312 1.29623
3.28834 0.97648 3.38783
6.3648 0.801309 3.2845
3.93474 1.07255 3.36057
7.23195 1.56953 1.44545
5.37603 0.801632 4.13526
4.78913 1.00671 4.06363
5.14904 0.587624 5.07163
3.67606 0.92544 4.27526
2.11844 1.03482 1.66927
2.66713 0.849159 3.68092
5.81795 0.600919 4.33747
5.49775 2.27505 0.772777
7.47659 1.21819 1.42719
5.94051 0.652799 4.06591
3.50336 1.09793 2.50638
5.47218 1.07419 3.04472
5.09615 1.00034 3.67096
3.31196 0.923772 3.71943
4.82414 1.98256 2.17293
7.36603 1.60446 1.19914
6.72847 0.938478 3.3139
2.99927 0.983363 3.19372
6.18497 0.694325 3.82133
2.54716 1.03182 2.05022
7.14359 1.60853 1.12888
7.21711 0.284244 3.724
3.8728 1.19258 2.25134
3.09365 1.14579 1.96722
2.58271 1.16755 1.77893
4.87032 0.887293 4.26605
6.10263 0.655079 3.94147
8.9057 0.647267 2.18659
4.82865 0.847923 4.38023
4.98826 1.22143 2.20085
2.92275 1.02468 2.47612
2.62129 1.15013 1.74387
5.20562 1.51834 1.73826
5.31258 1.86968 1.18636
6.81243 0.594218 5.0919
2.80701 1.16289 1.85534
6.17493 0.602015 4.24625
4.96776 0.96963 3.92986
